ply
format ascii 1.0
comment Created by Open3D
element vertex 1586
property double x
property double y
property double z
property uchar red
property uchar green
property uchar blue
end_header
5.2766 20.0511 248 81 149 154
5.80426 20.0511 248 84 152 157
6.33191 20.0511 248 82 153 158
6.85957 20.0511 248 83 154 159
7.41702 20.1319 249 85 156 161
7.94681 20.1319 249 86 157 162
8.4766 20.1319 249 83 154 159
9.00638 20.1319 249 84 155 160
9.53617 20.1319 249 84 155 160
10.1064 20.2128 250 84 155 160
10.6383 20.2128 250 86 157 159
11.1702 20.2128 250 86 157 160
11.7021 20.2128 250 87 158 160
12.234 20.2128 250 87 158 160
12.766 20.2128 250 86 158 160
13.3511 20.2936 251 86 158 160
13.8851 20.2936 251 85 157 159
14.4191 20.2936 251 84 156 158
14.9532 20.2936 251 84 155 159
15.4872 20.2936 251 84 156 159
16.0213 20.2936 251 86 158 161
16.5553 20.2936 251 86 158 161
17.1574 20.3745 252 86 158 161
17.6936 20.3745 252 88 161 164
18.2298 20.3745 252 89 162 165
18.766 20.3745 252 89 162 165
19.2255 20.2936 251 89 163 166
19.7596 20.2936 251 94 167 170
20.2128 20.2128 250 94 168 171
20.7447 20.2128 250 93 166 169
21.1064 20.0511 248 93 167 170
21.5468 19.9702 247 93 167 170
21.983 19.8894 246 93 167 169
22.4149 19.8085 245 93 167 169
22.8426 19.7277 244 93 166 171
23.3617 19.7277 244 94 167 172
23.783 19.6468 243 93 166 171
24.3 19.6468 243 93 166 171
24.7149 19.566 242 94 167 172
25.2298 19.566 242 94 167 172
25.7447 19.566 242 94 166 171
26.2596 19.566 242 94 166 171
26.7745 19.566 242 94 165 170
27.2894 19.566 242 94 165 170
27.6894 19.4851 241 94 165 170
28.2021 19.4851 241 93 164 169
28.7149 19.4851 241 92 163 168
29.1064 19.4043 240 93 164 169
29.617 19.4043 240 94 165 170
30.1277 19.4043 240 93 164 169
30.6383 19.4043 240 92 164 167
31.0191 19.3234 239 92 164 167
31.5277 19.3234 239 91 162 166
31.9021 19.2426 238 89 161 164
32.4085 19.2426 238 92 164 167
32.9149 19.2426 238 93 165 168
33.2809 19.1617 237 94 166 168
33.7851 19.1617 237 94 166 168
34.1447 19.0809 236 94 166 168
34.6468 19.0809 236 92 164 166
35.1489 19.0809 236 90 162 164
35.5 19 235 88 160 162
36 19 235 89 156 158
36.3447 18.9191 234 86 153 155
36.5277 18.7574 232 95 146 141
35.9043 18.1915 225 73 125 119
2.32979 18.1723 219 86 124 106
3.0766 19.9979 241 83 148 148
3.64894 20.3298 245 83 148 148
4.18723 20.4128 246 81 150 153
4.72979 20.4957 247 82 151 154
5.25532 20.4957 247 82 151 154
5.80426 20.5787 248 85 154 157
6.33191 20.5787 248 83 154 159
6.85957 20.5787 248 83 154 159
7.41702 20.6617 249 85 156 161
7.94681 20.6617 249 86 157 161
8.4766 20.6617 249 83 154 159
9.00638 20.6617 249 85 156 161
9.53617 20.6617 249 85 156 160
10.066 20.6617 249 83 154 159
10.6383 20.7447 250 87 156 159
11.1702 20.7447 250 87 156 159
11.7021 20.7447 250 88 157 160
12.234 20.7447 250 88 157 160
12.766 20.7447 250 86 158 160
13.2979 20.7447 250 86 158 160
13.8298 20.7447 250 86 158 160
14.4191 20.8277 251 84 156 158
14.9532 20.8277 251 84 155 160
15.4872 20.8277 251 85 156 161
16.0213 20.8277 251 89 160 166
16.5553 20.8277 251 93 164 169
17.0894 20.8277 251 88 161 166
17.5532 20.7447 250 95 168 173
18.0851 20.7447 250 95 169 173
18.5426 20.6617 249 95 168 173
18.9957 20.5787 248 97 170 175
19.4447 20.4957 247 98 171 176
19.8894 20.4128 246 97 170 175
20.3298 20.3298 245 97 170 175
20.766 20.2468 244 95 168 173
21.1979 20.1638 243 94 167 172
21.7149 20.1638 243 93 167 169
22.1404 20.0809 242 92 166 169
22.6553 20.0809 242 93 166 171
23.1702 20.0809 242 93 166 171
23.5872 19.9979 241 93 166 171
24.1 19.9979 241 94 167 172
24.6128 19.9979 241 94 167 172
25.1255 19.9979 241 94 167 172
25.6383 19.9979 241 95 166 171
26.1511 19.9979 241 95 166 171
26.6638 19.9979 241 94 165 170
27.0638 19.9149 240 94 165 170
27.5745 19.9149 240 93 164 169
28.0851 19.9149 240 93 164 169
28.5957 19.9149 240 93 164 169
28.9851 19.8319 239 93 164 169
29.4936 19.8319 239 93 164 169
30.0021 19.8319 239 92 163 168
30.5106 19.8319 239 92 163 168
30.8894 19.7489 238 93 164 169
31.3957 19.7489 238 92 163 168
31.9021 19.7489 238 91 161 167
32.2723 19.666 237 92 163 168
32.7766 19.666 237 94 165 170
33.1404 19.583 236 94 166 168
33.6426 19.583 236 95 167 169
34.1447 19.583 236 94 166 168
34.5 19.5 235 93 165 167
35 19.5 235 91 163 165
35.5 19.5 235 89 161 163
35.8468 19.417 234 89 156 159
36.1894 19.334 233 85 152 154
36.5277 19.2511 232 97 149 145
36.0638 18.7532 226 72 124 120
2.29787 18.383 216 86 123 103
3.06383 20.4255 240 85 148 147
3.64894 20.8511 245 85 148 147
4.18723 20.9362 246 81 150 153
4.72979 21.0213 247 83 152 155
5.25532 21.0213 247 84 153 156
5.80426 21.1064 248 88 157 160
6.33191 21.1064 248 85 157 159
6.85957 21.1064 248 85 157 159
7.38723 21.1064 248 85 157 159
7.94681 21.1915 249 83 155 158
8.4766 21.1915 249 85 157 159
9.00638 21.1915 249 85 157 159
9.53617 21.1915 249 83 155 157
10.066 21.1915 249 83 155 157
10.5957 21.1915 249 84 153 156
11.1702 21.2766 250 85 154 157
11.7021 21.2766 250 88 157 160
12.234 21.2766 250 87 156 159
12.766 21.2766 250 86 158 160
13.2979 21.2766 250 89 161 163
13.8298 21.2766 250 92 164 166
14.3617 21.2766 250 93 165 167
14.8936 21.2766 250 94 165 170
15.4255 21.2766 250 97 168 173
15.8936 21.1915 249 97 169 175
16.4234 21.1915 249 97 170 175
16.8851 21.1064 248 97 170 175
17.3426 21.0213 247 98 171 176
17.7957 20.9362 246 97 172 176
18.1702 20.766 244 94 169 173
18.6894 20.766 244 96 171 175
19.1298 20.6809 243 97 172 176
19.566 20.5957 242 94 169 173
20.0809 20.5957 242 94 169 173
20.5957 20.5957 242 93 168 172
21.0234 20.5106 241 94 169 173
21.5362 20.5106 241 95 168 172
22.0489 20.5106 241 94 167 172
22.5617 20.5106 241 94 167 172
22.9787 20.4255 240 94 167 172
23.4894 20.4255 240 94 167 172
24 20.4255 240 95 168 173
24.5106 20.4255 240 94 167 172
25.0213 20.4255 240 94 167 172
25.5319 20.4255 240 95 166 171
26.0426 20.4255 240 96 167 172
26.5532 20.4255 240 95 166 171
26.9511 20.3404 239 94 165 170
27.4596 20.3404 239 93 164 169
27.9681 20.3404 239 93 164 169
28.4766 20.3404 239 93 164 169
28.9851 20.3404 239 93 164 169
29.3702 20.2553 238 92 163 168
29.8766 20.2553 238 92 163 168
30.383 20.2553 238 93 164 169
30.8894 20.2553 238 93 164 169
31.2638 20.1702 237 94 165 170
31.7681 20.1702 237 94 164 170
32.2723 20.1702 237 95 166 171
32.6383 20.0851 236 94 165 170
33.1404 20.0851 236 94 165 170
33.5 20 235 94 165 170
34 20 235 93 165 167
34.5 20 235 93 165 167
34.8511 19.9149 234 94 166 168
35.3489 19.9149 234 92 164 166
35.8468 19.9149 234 91 158 162
36.1894 19.8298 233 86 153 157
36.5277 19.7447 232 96 150 147
36.383 19.4043 228 70 124 121
35.5745 18.7234 220 91 122 103
2.28723 18.7553 215 86 121 100
3.02553 20.6745 237 86 147 146
3.63404 21.2851 244 86 148 147
4.17021 21.3723 245 83 151 154
4.71064 21.4596 246 84 152 156
5.25532 21.5468 247 84 153 156
5.78085 21.5468 247 87 156 159
6.33191 21.634 248 86 156 159
6.85957 21.634 248 86 156 159
7.38723 21.634 248 83 154 158
7.91489 21.634 248 82 154 158
8.44255 21.634 248 84 155 159
9.00638 21.7213 249 84 155 159
9.53617 21.7213 249 83 154 158
10.066 21.7213 249 84 156 159
10.5957 21.7213 249 86 156 160
11.1255 21.7213 249 88 158 163
11.6553 21.7213 249 91 162 164
12.1851 21.7213 249 92 163 165
12.7149 21.7213 249 95 167 169
13.2447 21.7213 249 96 168 170
13.7191 21.634 248 96 169 171
14.2468 21.634 248 98 171 173
14.7149 21.5468 247 99 171 176
15.1787 21.4596 246 99 171 176
15.6383 21.3723 245 99 172 177
16.0936 21.2851 244 99 172 177
16.5447 21.1979 243 99 172 177
16.9915 21.1106 242 99 172 177
17.5064 21.1106 242 98 171 176
17.9468 21.0234 241 96 170 174
18.4596 21.0234 241 95 169 174
18.9723 21.0234 241 96 170 174
19.4043 20.9362 240 94 168 172
19.9149 20.9362 240 94 168 172
20.4255 20.9362 240 94 167 172
20.9362 20.9362 240 95 168 173
21.4468 20.9362 240 95 168 173
21.9574 20.9362 240 95 168 173
22.3745 20.8489 239 95 168 173
22.883 20.8489 239 95 168 173
23.3915 20.8489 239 96 168 171
23.9 20.8489 239 96 168 171
24.4085 20.8489 239 95 167 170
24.917 20.8489 239 95 168 171
25.4255 20.8489 239 94 167 170
25.934 20.8489 239 95 168 171
26.4426 20.8489 239 94 167 170
26.8383 20.7617 238 93 166 169
27.3447 20.7617 238 93 165 168
27.8511 20.7617 238 94 165 168
28.3574 20.7617 238 94 165 168
28.8638 20.7617 238 93 165 168
29.3702 20.7617 238 92 164 167
29.8766 20.7617 238 92 164 167
30.2553 20.6745 237 93 165 168
30.7596 20.6745 237 94 165 168
31.2638 20.6745 237 95 166 169
31.7681 20.6745 237 94 166 169
32.1362 20.5872 236 94 166 169
32.6383 20.5872 236 95 166 169
33 20.5 235 97 165 169
33.5 20.5 235 93 161 166
33.8553 20.4128 234 92 161 163
34.3532 20.4128 234 92 161 163
34.8511 20.4128 234 95 165 167
35.1979 20.3255 233 94 164 166
35.6936 20.3255 233 93 161 163
36.034 20.2383 232 85 154 156
36.5277 20.2383 232 94 151 149
36.383 19.8894 228 71 128 127
35.7362 19.2787 221 88 121 103
2.2766 19.1234 214 87 120 99
2.98723 20.9106 234 86 145 143
3.61915 21.7149 243 88 148 145
4.17021 21.8936 245 85 151 154
4.71064 21.983 246 86 152 156
5.23404 21.983 246 84 153 156
5.78085 22.0723 247 86 155 158
6.30638 22.0723 247 85 155 159
6.83191 22.0723 247 86 156 160
7.38723 22.1617 248 84 154 160
7.91489 22.1617 248 84 155 160
8.44255 22.1617 248 85 157 162
8.97021 22.1617 248 87 159 163
9.49787 22.1617 248 86 158 163
10.0255 22.1617 248 87 159 164
10.5532 22.1617 248 89 161 166
11.0809 22.1617 248 92 164 169
11.5617 22.0723 247 94 167 170
12.0872 22.0723 247 96 168 172
12.5617 21.983 246 99 172 174
13.0319 21.8936 245 99 172 174
13.5532 21.8936 245 97 171 173
14.017 21.8043 244 97 171 173
14.4766 21.7149 243 98 171 176
14.9319 21.6255 242 97 171 175
15.383 21.5362 241 98 171 176
15.8957 21.5362 241 99 172 177
16.3404 21.4468 240 98 171 176
16.8511 21.4468 240 99 172 177
17.3617 21.4468 240 98 171 176
17.8723 21.4468 240 97 170 175
18.3064 21.3574 239 96 169 174
18.8149 21.3574 239 95 168 173
19.3234 21.3574 239 94 167 172
19.8319 21.3574 239 94 167 172
20.3404 21.3574 239 94 167 172
20.8489 21.3574 239 95 168 173
21.3574 21.3574 239 95 168 173
21.866 21.3574 239 95 168 173
22.2809 21.2681 238 95 168 173
22.7872 21.2681 238 94 167 172
23.2936 21.2681 238 96 168 170
23.8 21.2681 238 96 168 170
24.3064 21.2681 238 95 167 169
24.8128 21.2681 238 95 167 169
25.3191 21.2681 238 93 167 169
25.8255 21.2681 238 93 167 169
26.3319 21.2681 238 93 167 169
26.8383 21.2681 238 93 167 169
27.3447 21.2681 238 92 165 167
27.734 21.1787 237 93 166 168
28.2383 21.1787 237 94 166 168
28.7426 21.1787 237 93 165 167
29.2468 21.1787 237 92 164 166
29.7511 21.1787 237 92 164 166
30.2553 21.1787 237 93 165 167
30.7596 21.1787 237 94 166 168
31.1319 21.0894 236 94 166 168
31.634 21.0894 236 93 165 167
32.1362 21.0894 236 94 164 166
32.5 21 235 91 161 163
32.8596 20.9106 234 94 156 157
33.2149 20.8213 233 90 152 153
33.7106 20.8213 233 88 149 148
34.2064 20.8213 233 89 150 149
34.7021 20.8213 233 92 158 159
35.1979 20.8213 233 94 161 162
35.5404 20.7319 232 93 162 163
36.034 20.7319 232 86 156 156
36.3702 20.6426 231 91 151 151
36.5426 20.4638 229 77 136 136
35.7362 19.7489 221 86 120 103
2.2766 19.5787 214 89 121 100
2.9234 20.9511 229 85 142 138
3.60426 22.1404 242 90 147 143
4.15319 22.3234 244 86 150 153
4.69149 22.4149 245 88 152 155
5.21277 22.4149 245 84 153 156
5.75745 22.5064 246 84 154 156
6.28085 22.5064 246 83 155 159
6.80426 22.5064 246 85 157 161
7.32766 22.5064 246 87 158 163
7.85106 22.5064 246 88 160 165
8.37447 22.5064 246 89 161 167
8.89787 22.5064 246 93 166 171
9.42128 22.5064 246 92 165 170
9.90426 22.4149 245 91 164 169
10.4255 22.4149 245 92 165 170
10.9021 22.3234 244 95 168 173
11.3745 22.2319 243 96 170 174
11.8915 22.2319 243 98 170 176
12.3574 22.1404 242 97 171 174
12.8191 22.0489 241 96 170 173
13.3319 22.0489 241 94 168 170
13.7872 21.9574 240 93 167 169
14.2979 21.9574 240 95 168 173
14.7468 21.866 239 95 168 173
15.2553 21.866 239 96 169 174
15.7638 21.866 239 96 169 174
16.2723 21.866 239 97 169 174
16.7809 21.866 239 97 170 175
17.217 21.7745 238 97 170 175
17.7234 21.7745 238 97 169 174
18.2298 21.7745 238 97 169 174
18.7362 21.7745 238 95 168 173
19.2426 21.7745 238 95 168 173
19.7489 21.7745 238 95 168 173
20.2553 21.7745 238 95 168 173
20.7617 21.7745 238 95 168 173
21.2681 21.7745 238 95 168 173
21.7745 21.7745 238 95 168 173
22.2809 21.7745 238 94 167 172
22.6915 21.683 237 92 165 170
23.1957 21.683 237 94 166 168
23.7 21.683 237 95 167 169
24.2043 21.683 237 94 166 168
24.7085 21.683 237 93 165 167
25.2128 21.683 237 92 166 168
25.717 21.683 237 91 165 167
26.2213 21.683 237 91 165 167
26.7255 21.683 237 92 166 168
27.2298 21.683 237 91 165 167
27.734 21.683 237 92 166 168
28.2383 21.683 237 93 165 167
28.6213 21.5915 236 93 165 167
29.1234 21.5915 236 93 165 167
29.6255 21.5915 236 93 165 167
30.1277 21.5915 236 94 166 168
30.6298 21.5915 236 93 165 167
31.1319 21.5915 236 91 163 165
31.634 21.5915 236 92 164 166
32 21.5 235 92 158 160
32.3617 21.4085 234 82 148 150
32.7191 21.317 233 86 138 135
32.9298 21.134 231 86 138 134
33.4213 21.134 231 83 132 125
33.9128 21.134 231 82 131 124
34.4043 21.134 231 81 143 144
34.8957 21.134 231 92 154 155
35.3872 21.134 231 90 159 160
35.8787 21.134 231 89 158 159
36.2128 21.0426 230 89 151 151
36.5426 20.9511 229 84 145 146
35.8979 20.3106 222 84 120 105
2.26596 19.9404 213 90 122 101
2.88511 21.1574 226 84 141 135
3.58936 22.5617 241 91 148 142
4.13617 22.7489 243 83 150 152
4.65319 22.7489 243 85 152 154
5.19149 22.8426 244 83 155 155
5.71064 22.8426 244 86 157 158
6.22979 22.8426 244 86 159 162
6.74894 22.8426 244 86 160 162
7.26809 22.8426 244 90 162 167
7.78723 22.8426 244 91 163 168
8.27234 22.7489 243 92 164 170
8.75319 22.6553 242 95 168 173
9.26809 22.6553 242 95 168 173
9.74255 22.5617 241 93 166 171
10.2553 22.5617 241 92 165 170
10.7234 22.4681 240 94 167 172
11.234 22.4681 240 93 167 171
11.6957 22.3745 239 95 167 173
12.2043 22.3745 239 94 167 171
12.7128 22.3745 239 93 167 171
13.2213 22.3745 239 92 165 170
13.6723 22.2809 238 92 165 170
14.1787 22.2809 238 92 165 170
14.6851 22.2809 238 92 165 170
15.1915 22.2809 238 93 166 171
15.6979 22.2809 238 93 166 171
16.2043 22.2809 238 94 166 171
16.7106 22.2809 238 94 165 170
17.1447 22.1872 237 94 165 170
17.6489 22.1872 237 94 166 171
18.1532 22.1872 237 94 166 171
18.6574 22.1872 237 96 167 172
19.1617 22.1872 237 96 167 172
19.666 22.1872 237 97 168 173
20.1702 22.1872 237 94 167 172
20.6745 22.1872 237 94 167 172
21.1787 22.1872 237 96 167 172
21.683 22.1872 237 94 165 170
22.1872 22.1872 237 93 164 169
22.6915 22.1872 237 94 165 170
23.1957 22.1872 237 93 165 167
23.7 22.1872 237 93 165 167
24.2043 22.1872 237 92 164 166
24.7085 22.1872 237 92 164 166
25.1064 22.0936 236 92 164 166
25.6085 22.0936 236 92 164 166
26.1106 22.0936 236 93 165 167
26.6128 22.0936 236 94 166 168
27.1149 22.0936 236 94 167 169
27.617 22.0936 236 93 165 167
28.1191 22.0936 236 93 165 167
28.6213 22.0936 236 93 165 167
29.1234 22.0936 236 94 166 168
29.6255 22.0936 236 93 165 167
30.1277 22.0936 236 93 165 167
30.6298 22.0936 236 90 162 164
31 22 235 88 160 162
31.5 22 235 89 161 163
31.8638 21.9064 234 86 143 145
32.0851 21.7191 232 72 129 130
32.4383 21.6255 231 82 123 114
32.5021 21.3447 228 83 124 116
32.9872 21.3447 228 80 117 107
33.4723 21.3447 228 73 110 100
34.2553 21.5319 230 65 117 118
34.7447 21.5319 230 88 140 141
35.3872 21.6255 231 84 151 153
35.7234 21.5319 230 90 157 159
36.2128 21.5319 230 91 154 154
36.5426 21.4383 229 81 143 144
36.0596 20.8766 223 85 122 108
2.26596 20.3936 213 91 121 100
2.83404 21.2553 222 90 147 141
3.55957 22.883 239 94 151 145
4.10213 23.0745 241 87 156 157
4.63404 23.1702 242 89 157 158
5.17021 23.266 243 89 161 162
5.68723 23.266 243 90 162 163
6.17872 23.1702 242 87 161 163
6.69362 23.1702 242 87 161 163
7.17872 23.0745 241 90 164 167
7.69149 23.0745 241 91 165 168
8.17021 22.9787 240 92 165 170
8.68085 22.9787 240 94 167 172
9.15319 22.883 239 94 167 172
9.6617 22.883 239 94 167 172
10.1702 22.883 239 93 166 171
10.6787 22.883 239 93 166 171
11.1404 22.7872 238 93 166 171
11.6468 22.7872 238 93 166 171
12.1532 22.7872 238 92 165 170
12.6596 22.7872 238 92 165 170
13.166 22.7872 238 91 164 169
13.6149 22.6915 237 91 164 169
14.1191 22.6915 237 91 164 169
14.6234 22.6915 237 91 164 169
15.1277 22.6915 237 91 164 169
15.6319 22.6915 237 91 164 169
16.1362 22.6915 237 93 164 169
16.6404 22.6915 237 92 163 168
17.1447 22.6915 237 92 163 168
17.5745 22.5957 236 93 164 169
18.0766 22.5957 236 94 165 170
18.5787 22.5957 236 95 166 171
19.0809 22.5957 236 95 166 171
19.583 22.5957 236 95 166 171
20.0851 22.5957 236 94 166 171
20.5872 22.5957 236 95 166 171
21.0894 22.5957 236 95 166 171
21.5915 22.5957 236 94 165 170
22.0936 22.5957 236 93 164 169
22.5957 22.5957 236 93 164 169
23.0979 22.5957 236 94 166 168
23.6 22.5957 236 94 166 168
24.1021 22.5957 236 93 165 167
24.6043 22.5957 236 93 165 167
25.1064 22.5957 236 93 165 167
25.6085 22.5957 236 93 165 167
26.1106 22.5957 236 94 166 168
26.6128 22.5957 236 94 166 168
27 22.5 235 96 168 170
27.5 22.5 235 94 166 168
28 22.5 235 94 166 168
28.5 22.5 235 92 164 166
29 22.5 235 93 165 167
29.5 22.5 235 93 165 167
30 22.5 235 90 162 164
30.5 22.5 235 89 161 163
31 22.5 235 88 158 160
31.366 22.4043 234 86 156 158
31.5915 22.2128 232 72 123 121
31.6702 21.9255 229 71 121 119
32.017 21.8298 228 80 116 103
32.3596 21.734 227 79 114 101
32.8426 21.734 227 73 106 93
33.3255 21.734 227 67 99 87
33.9574 21.8298 228 58 103 102
34.5936 21.9255 229 66 111 110
35.234 22.0213 230 76 141 142
35.7234 22.0213 230 86 151 152
36.2128 22.0213 230 88 152 152
36.5426 21.9255 229 83 146 147
36.2213 21.4468 224 84 122 109
2.82128 21.6298 221 93 149 143
3.52979 23.1957 237 98 153 147
4.06809 23.3915 239 90 159 160
4.61489 23.5872 241 90 159 160
5.12766 23.5872 241 92 163 165
5.64043 23.5872 241 92 163 165
6.12766 23.4894 240 89 162 164
6.6383 23.4894 240 90 163 165
7.11915 23.3915 239 90 163 165
7.62766 23.3915 239 91 165 167
8.13617 23.3915 239 92 164 169
8.60851 23.2936 238 93 165 170
9.11489 23.2936 238 94 166 171
9.62128 23.2936 238 94 166 171
10.1277 23.2936 238 95 167 172
10.5894 23.1957 237 93 165 170
11.0936 23.1957 237 93 166 171
11.5979 23.1957 237 93 165 170
12.1021 23.1957 237 92 164 169
12.6064 23.1957 237 92 164 169
13.1106 23.1957 237 91 164 169
13.5574 23.0979 236 91 164 169
14.0596 23.0979 236 91 164 169
14.5617 23.0979 236 91 163 168
15.0638 23.0979 236 91 164 169
15.566 23.0979 236 90 163 168
16.0681 23.0979 236 93 164 169
16.5702 23.0979 236 92 163 168
17.0723 23.0979 236 92 163 168
17.5745 23.0979 236 92 163 168
18.0766 23.0979 236 94 165 170
18.5787 23.0979 236 94 165 170
19.0809 23.0979 236 95 166 171
19.583 23.0979 236 94 165 170
20.0851 23.0979 236 94 165 169
20.5872 23.0979 236 94 166 169
21 23 235 94 166 170
21.5 23 235 94 166 170
22 23 235 94 165 169
22.5 23 235 93 165 169
23 23 235 94 166 168
23.5 23 235 94 166 168
24 23 235 94 166 168
24.5 23 235 94 166 168
25 23 235 93 165 167
25.5 23 235 94 166 168
26 23 235 94 166 168
26.5 23 235 94 166 168
27 23 235 96 168 170
27.5 23 235 95 167 169
28 23 235 95 167 169
28.5 23 235 93 165 167
29 23 235 93 165 167
29.5 23 235 92 164 166
30 23 235 89 161 163
30.3702 22.9021 234 89 161 163
30.8681 22.9021 234 90 158 158
31.2319 22.8043 233 80 148 148
31.4553 22.6085 231 56 100 96
31.5319 22.3149 228 63 107 104
31.8766 22.217 227 74 105 91
32.217 22.1191 226 70 101 87
32.6979 22.1191 226 67 97 83
33.1787 22.1191 226 61 91 77
33.8085 22.217 227 54 91 86
34.4426 22.3149 228 48 86 81
35.0809 22.4128 229 66 127 127
35.5681 22.4128 229 83 144 145
36.0553 22.4128 229 85 148 149
36.5426 22.4128 229 84 147 148
36.5447 22.1191 226 83 122 110
2.79574 21.9 219 93 146 139
3.51489 23.6 236 101 154 146
4.05106 23.8 238 90 159 160
4.5766 23.9 239 89 157 158
5.08511 23.9 239 91 160 163
5.59362 23.9 239 92 161 164
6.10213 23.9 239 92 164 166
6.58298 23.8 238 92 164 166
7.08936 23.8 238 90 162 165
7.59574 23.8 238 92 164 166
8.06809 23.7 237 92 163 168
8.57234 23.7 237 93 164 169
9.0766 23.7 237 93 164 169
9.58085 23.7 237 94 165 170
10.0851 23.7 237 96 167 172
10.5447 23.6 236 94 165 170
11.0468 23.6 236 94 165 170
11.5489 23.6 236 93 164 169
12.0511 23.6 236 93 164 169
12.5532 23.6 236 92 163 168
13.0553 23.6 236 92 163 168
13.5574 23.6 236 92 163 168
14.0596 23.6 236 92 163 168
14.5 23.5 235 90 161 166
15 23.5 235 90 163 168
15.5 23.5 235 90 163 168
16 23.5 235 93 164 169
16.5 23.5 235 92 163 168
17 23.5 235 92 163 168
17.5 23.5 235 93 164 169
18 23.5 235 94 165 170
18.5 23.5 235 94 165 170
19 23.5 235 94 165 170
19.5 23.5 235 94 165 170
20 23.5 235 93 165 167
20.5 23.5 235 93 165 167
21 23.5 235 95 167 169
21.5 23.5 235 95 167 169
22 23.5 235 95 167 169
22.5 23.5 235 94 166 168
23 23.5 235 94 166 168
23.5 23.5 235 95 167 169
24 23.5 235 95 167 169
24.5 23.5 235 94 166 168
24.8936 23.4 234 94 166 168
25.3915 23.4 234 94 166 168
25.8894 23.4 234 94 166 168
26.3872 23.4 234 94 166 168
26.8851 23.4 234 94 166 168
27.383 23.4 234 96 168 170
27.8809 23.4 234 96 168 170
28.3787 23.4 234 94 166 168
28.8766 23.4 234 92 164 166
29.3745 23.4 234 90 162 164
29.8723 23.4 234 89 161 163
30.3702 23.4 234 88 160 162
30.7362 23.3 233 92 157 157
31.0979 23.2 232 69 134 133
31.0468 22.8 228 37 74 71
31.3936 22.7 227 47 84 80
31.7362 22.6 226 59 86 74
32.217 22.6 226 58 85 73
32.6979 22.6 226 59 87 74
33.1787 22.6 226 54 81 68
33.6596 22.6 226 48 80 71
34.2915 22.7 227 38 69 61
34.9277 22.8 228 53 111 111
35.5681 22.9 229 81 138 139
36.0553 22.9 229 82 145 146
36.5426 22.9 229 82 145 146
36.5447 22.6 226 84 123 112
2.77021 22.1617 217 87 140 130
3.48511 23.8979 234 100 153 143
4.01702 24.1021 236 87 154 156
4.5383 24.2043 237 86 154 155
5.06383 24.3064 238 89 158 161
5.57021 24.3064 238 90 159 162
6.05106 24.2043 237 90 161 166
6.55532 24.2043 237 92 163 168
7.05957 24.2043 237 92 163 168
7.53191 24.1021 236 92 163 168
8.03404 24.1021 236 92 164 166
8.53617 24.1021 236 92 164 166
9.0383 24.1021 236 93 165 167
9.54043 24.1021 236 92 164 167
10.0426 24.1021 236 94 166 169
10.5447 24.1021 236 93 165 167
11 24 235 93 165 167
11.5 24 235 92 164 166
12 24 235 92 164 166
12.5 24 235 92 164 166
13 24 235 92 164 166
13.5 24 235 90 162 165
14 24 235 92 164 166
14.5 24 235 92 164 166
15 24 235 90 164 166
15.5 24 235 90 164 166
16 24 235 94 166 168
16.5 24 235 92 164 166
17 24 235 93 165 167
17.5 24 235 93 165 167
18 24 235 95 167 169
18.4213 23.8979 234 94 166 168
18.9191 23.8979 234 94 166 168
19.417 23.8979 234 94 166 168
19.9149 23.8979 234 93 165 167
20.4128 23.8979 234 94 166 168
20.9106 23.8979 234 95 167 169
21.4085 23.8979 234 95 167 169
21.9064 23.8979 234 95 167 169
22.4043 23.8979 234 94 166 168
22.9021 23.8979 234 93 165 167
23.4 23.8979 234 93 165 167
23.8979 23.8979 234 93 165 167
24.3957 23.8979 234 93 165 167
24.8936 23.8979 234 94 166 168
25.3915 23.8979 234 94 166 168
25.8894 23.8979 234 94 166 168
26.3872 23.8979 234 94 166 168
26.8851 23.8979 234 94 166 168
27.383 23.8979 234 95 167 169
27.8809 23.8979 234 95 167 169
28.3787 23.8979 234 93 165 167
28.8766 23.8979 234 92 164 166
29.2489 23.7957 233 90 162 164
29.7447 23.7957 233 90 162 164
30.2404 23.7957 233 86 158 160
30.6043 23.6936 232 95 158 157
30.9638 23.5915 231 50 113 112
30.9106 23.183 227 16 46 44
31.2553 23.0809 226 25 55 53
31.5957 22.9787 225 37 56 49
32.0745 22.9787 225 41 60 53
32.6979 23.0809 226 41 66 53
33.1787 23.0809 226 41 66 53
33.6596 23.0809 226 38 65 58
34.1404 23.0809 226 31 59 52
34.7745 23.183 227 44 96 97
35.4128 23.2851 228 77 129 130
35.8979 23.2851 228 80 143 144
36.383 23.2851 228 82 145 146
36.7064 23.183 227 81 123 111
36.0426 22.4681 220 85 126 114
2.75745 22.5191 216 83 135 124
3.45532 24.1872 232 101 152 141
3.98298 24.3957 234 87 154 156
4.51915 24.6043 236 85 152 154
5.02128 24.6043 236 85 154 157
5.5234 24.6043 236 89 158 161
6.02553 24.6043 236 88 159 164
6.52766 24.6043 236 90 160 166
7 24.5 235 90 160 166
7.5 24.5 235 90 161 166
8 24.5 235 91 162 166
8.5 24.5 235 91 162 166
9 24.5 235 92 164 168
9.5 24.5 235 92 163 167
10 24.5 235 93 165 167
10.5 24.5 235 93 165 167
11 24.5 235 92 162 165
11.4511 24.3957 234 91 162 164
11.9489 24.3957 234 91 162 164
12.4468 24.3957 234 92 162 165
12.9447 24.3957 234 91 163 165
13.4426 24.3957 234 90 162 164
13.9404 24.3957 234 92 164 166
14.4383 24.3957 234 92 164 166
14.9362 24.3957 234 91 165 167
15.434 24.3957 234 91 165 167
15.9319 24.3957 234 93 166 168
16.4298 24.3957 234 92 165 167
16.9277 24.3957 234 92 165 167
17.4255 24.3957 234 92 165 167
17.9234 24.3957 234 95 167 169
18.4213 24.3957 234 94 166 168
18.9191 24.3957 234 93 165 167
19.417 24.3957 234 93 165 167
19.9149 24.3957 234 94 164 166
20.4128 24.3957 234 94 164 167
20.9106 24.3957 234 95 165 168
21.4085 24.3957 234 95 165 168
21.9064 24.3957 234 94 164 167
22.3085 24.2915 233 95 165 167
22.8043 24.2915 233 94 164 167
23.3 24.2915 233 94 164 167
23.7957 24.2915 233 94 164 167
24.2915 24.2915 233 94 164 167
24.7872 24.2915 233 95 165 167
25.283 24.2915 233 95 165 167
25.7787 24.2915 233 93 165 167
26.2745 24.2915 233 93 165 167
26.7702 24.2915 233 93 165 167
27.266 24.2915 233 94 166 168
27.7617 24.2915 233 94 166 168
28.2574 24.2915 233 93 165 167
28.7532 24.2915 233 93 165 167
29.2489 24.2915 233 91 163 165
29.7447 24.2915 233 89 161 163
30.1106 24.1872 232 85 157 159
30.6043 24.1872 232 98 160 159
30.8298 23.9787 230 39 101 100
30.9106 23.666 227 10 39 38
31.117 23.4574 225 18 48 46
31.5957 23.4574 225 28 46 42
32.0745 23.4574 225 31 49 45
32.5532 23.4574 225 32 52 45
33.1787 23.5617 226 33 53 46
33.6596 23.5617 226 27 55 50
34.1404 23.5617 226 26 54 50
34.7745 23.666 227 34 87 88
35.4128 23.7702 228 75 128 129
35.8979 23.7702 228 81 144 144
36.383 23.7702 228 85 147 147
36.7064 23.666 227 85 128 118
36.0426 22.9362 220 85 127 118
2.74468 22.8723 215 81 130 119
3.41064 24.3617 229 102 152 141
3.96596 24.7872 233 87 153 155
4.48085 24.8936 234 84 150 153
5 25 235 81 150 153
5.5 25 235 87 156 159
6 25 235 86 156 161
6.5 25 235 88 158 164
6.97021 24.8936 234 89 159 164
7.46809 24.8936 234 89 159 165
7.96596 24.8936 234 90 160 165
8.46383 24.8936 234 90 160 165
8.9617 24.8936 234 91 162 166
9.45957 24.8936 234 91 162 166
9.95745 24.8936 234 91 163 165
10.4553 24.8936 234 91 163 165
10.9532 24.8936 234 91 160 163
11.4511 24.8936 234 91 160 163
11.9489 24.8936 234 91 160 163
12.4468 24.8936 234 92 161 164
12.9447 24.8936 234 91 162 164
13.4426 24.8936 234 91 162 164
13.9404 24.8936 234 92 164 166
14.4383 24.8936 234 92 164 166
14.8723 24.7872 233 92 165 167
15.3681 24.7872 233 92 165 167
15.8638 24.7872 233 93 166 168
16.3596 24.7872 233 93 166 168
16.8553 24.7872 233 92 166 168
17.3511 24.7872 233 92 166 168
17.8468 24.7872 233 95 167 169
18.3426 24.7872 233 94 166 168
18.8383 24.7872 233 92 164 166
19.334 24.7872 233 93 165 167
19.8298 24.7872 233 94 163 166
20.3255 24.7872 233 94 163 166
20.8213 24.7872 233 95 164 167
21.317 24.7872 233 95 164 167
21.8128 24.7872 233 94 163 166
22.3085 24.7872 233 95 164 167
22.8043 24.7872 233 95 164 167
23.3 24.7872 233 95 164 167
23.7957 24.7872 233 95 164 167
24.2915 24.7872 233 95 164 167
24.7872 24.7872 233 95 164 167
25.283 24.7872 233 95 164 167
25.7787 24.7872 233 93 165 167
26.2745 24.7872 233 93 165 167
26.7702 24.7872 233 93 165 167
27.266 24.7872 233 93 165 167
27.7617 24.7872 233 93 165 167
28.2574 24.7872 233 93 165 167
28.7532 24.7872 233 93 165 167
29.1234 24.6809 232 92 164 166
29.617 24.6809 232 90 161 163
30.1106 24.6809 232 86 157 159
30.4723 24.5745 231 98 159 159
30.8298 24.4681 230 42 103 103
30.9106 24.1489 227 7 37 37
31.117 23.9362 225 16 46 45
31.5957 23.9362 225 24 43 41
32.0745 23.9362 225 26 44 42
32.5532 23.9362 225 27 46 42
33.1787 24.0426 226 27 46 42
33.6596 24.0426 226 19 53 50
34.1404 24.0426 226 30 63 61
34.7745 24.1489 227 44 98 99
35.4128 24.2553 228 76 130 132
35.8979 24.2553 228 87 149 148
36.383 24.2553 228 88 150 149
36.7064 24.1489 227 90 134 126
36.2064 23.5106 221 85 130 122
2.73191 23.2213 214 80 125 116
3.36596 24.5234 226 105 150 141
3.94894 25.1745 232 86 150 153
4.4617 25.283 233 83 147 150
4.97872 25.3915 234 79 146 150
5.4766 25.3915 234 85 152 156
5.97447 25.3915 234 85 153 159
6.47234 25.3915 234 89 157 163
6.94043 25.283 233 90 158 164
7.43617 25.283 233 90 158 164
7.93191 25.283 233 90 159 162
8.42766 25.283 233 90 159 162
8.9234 25.283 233 89 160 163
9.41915 25.283 233 89 161 163
9.91489 25.283 233 89 161 163
10.4106 25.283 233 89 161 163
10.9064 25.283 233 90 159 162
11.4021 25.283 233 91 160 163
11.8979 25.283 233 91 160 163
12.3936 25.283 233 92 161 164
12.8894 25.283 233 92 161 164
13.3851 25.283 233 92 161 164
13.8809 25.283 233 92 164 166
14.3766 25.283 233 92 164 166
14.8723 25.283 233 93 165 167
15.3681 25.283 233 93 165 167
15.8638 25.283 233 94 166 168
16.3596 25.283 233 94 166 168
16.8553 25.283 233 95 167 169
17.3511 25.283 233 95 167 169
17.8468 25.283 233 95 167 169
18.3426 25.283 233 93 165 167
18.8383 25.283 233 93 165 167
19.334 25.283 233 93 165 167
19.8298 25.283 233 95 164 167
20.3255 25.283 233 95 164 167
20.7319 25.1745 232 94 163 166
21.2255 25.1745 232 94 163 166
21.7191 25.1745 232 94 163 166
22.2128 25.1745 232 94 163 166
22.7064 25.1745 232 95 164 167
23.2 25.1745 232 96 165 168
23.6936 25.1745 232 95 164 167
24.1872 25.1745 232 96 165 168
24.6809 25.1745 232 94 163 166
25.1745 25.1745 232 95 164 167
25.6681 25.1745 232 92 164 166
26.1617 25.1745 232 92 164 166
26.6553 25.1745 232 92 164 166
27.1489 25.1745 232 92 164 166
27.6426 25.1745 232 92 164 166
28.1362 25.1745 232 93 165 167
28.6298 25.1745 232 92 164 166
29.1234 25.1745 232 92 164 166
29.617 25.1745 232 92 161 164
29.9809 25.066 231 88 157 160
30.4723 25.066 231 95 156 157
30.8298 24.9574 230 57 118 119
30.9106 24.6319 227 7 39 39
31.117 24.4149 225 14 46 46
31.5957 24.4149 225 23 43 41
32.0745 24.4149 225 25 45 43
32.5532 24.4149 225 26 46 44
33.1787 24.5234 226 25 46 43
33.6596 24.5234 226 24 66 63
34.1404 24.5234 226 45 87 85
34.7745 24.6319 227 69 125 126
35.2574 24.6319 227 78 135 136
35.7404 24.6319 227 94 155 154
36.2234 24.6319 227 91 152 151
36.7064 24.6319 227 92 141 133
36.2064 23.9809 221 85 133 125
2.71915 23.566 213 81 121 110
3.30638 24.5617 222 107 147 136
3.93191 25.5574 231 87 152 152
4.44255 25.6681 232 83 148 148
4.95745 25.7787 233 78 145 147
5.45319 25.7787 233 85 152 154
5.94894 25.7787 233 87 156 159
6.44468 25.7787 233 89 158 161
6.91064 25.6681 232 91 160 163
7.40426 25.6681 232 91 160 163
7.89787 25.6681 232 91 160 163
8.39149 25.6681 232 91 160 163
8.88511 25.6681 232 93 163 166
9.37872 25.6681 232 92 161 164
9.87234 25.6681 232 89 161 163
10.366 25.6681 232 88 160 162
10.8596 25.6681 232 88 160 162
11.3532 25.6681 232 88 160 162
11.8468 25.6681 232 89 161 163
12.3404 25.6681 232 90 162 164
12.834 25.6681 232 90 162 164
13.3277 25.6681 232 89 161 163
13.8213 25.6681 232 89 161 163
14.3149 25.6681 232 90 162 164
14.8085 25.6681 232 90 162 164
15.3021 25.6681 232 93 165 167
15.7957 25.6681 232 93 165 167
16.2894 25.6681 232 94 166 168
16.783 25.6681 232 94 166 168
17.2766 25.6681 232 94 166 168
17.7702 25.6681 232 94 166 168
18.2638 25.6681 232 94 166 168
18.7574 25.6681 232 94 166 168
19.2511 25.6681 232 94 166 168
19.7447 25.6681 232 94 166 168
20.2383 25.6681 232 93 165 167
20.7319 25.6681 232 93 165 167
21.2255 25.6681 232 94 166 168
21.7191 25.6681 232 95 164 167
22.2128 25.6681 232 94 163 166
22.7064 25.6681 232 94 163 166
23.2 25.6681 232 95 164 167
23.6936 25.6681 232 94 163 166
24.1872 25.6681 232 95 164 167
24.6809 25.6681 232 95 164 167
25.1745 25.6681 232 95 164 167
25.6681 25.6681 232 92 164 166
26.1617 25.6681 232 92 164 166
26.6553 25.6681 232 92 164 166
27.1489 25.6681 232 92 164 166
27.6426 25.6681 232 92 164 166
28.1362 25.6681 232 93 165 167
28.6298 25.6681 232 92 164 166
28.9979 25.5574 231 92 164 166
29.4894 25.5574 231 91 160 163
29.9809 25.5574 231 88 157 160
30.3404 25.4468 230 94 156 160
30.8298 25.4468 230 72 133 137
30.9106 25.1149 227 16 55 55
31.2553 25.0043 226 9 48 48
31.7362 25.0043 226 23 45 44
32.217 25.0043 226 25 47 46
32.6979 25.0043 226 23 48 49
33.1787 25.0043 226 32 57 58
33.6596 25.0043 226 71 122 120
34.1404 25.0043 226 76 126 124
34.7745 25.1149 227 74 132 134
35.2574 25.1149 227 81 138 140
35.7404 25.1149 227 93 154 155
36.2234 25.1149 227 91 152 153
36.7064 25.1149 227 94 144 136
36.2064 24.4511 221 84 135 126
2.70638 23.9064 212 84 122 110
3.2766 24.8085 220 108 145 133
3.93191 26.0489 231 91 156 155
4.4234 26.0489 231 87 152 151
4.93617 26.1617 232 83 150 152
5.42979 26.1617 232 89 156 158
5.9234 26.1617 232 92 161 164
6.41702 26.1617 232 93 162 165
6.91064 26.1617 232 95 164 167
7.37234 26.0489 231 93 163 165
7.86383 26.0489 231 93 163 165
8.35532 26.0489 231 94 163 166
8.84681 26.0489 231 95 164 167
9.3383 26.0489 231 92 161 164
9.82979 26.0489 231 90 160 163
10.3213 26.0489 231 90 160 163
10.8596 26.1617 232 89 161 163
11.3532 26.1617 232 89 161 163
11.8468 26.1617 232 90 162 164
12.3404 26.1617 232 91 163 165
12.834 26.1617 232 91 163 165
13.3277 26.1617 232 90 162 164
13.8213 26.1617 232 91 163 165
14.3149 26.1617 232 92 164 166
14.8085 26.1617 232 93 165 167
15.3021 26.1617 232 94 166 168
15.7957 26.1617 232 94 166 168
16.2894 26.1617 232 95 167 169
16.783 26.1617 232 94 166 168
17.2766 26.1617 232 94 166 168
17.7702 26.1617 232 94 166 168
18.2638 26.1617 232 95 167 169
18.7574 26.1617 232 94 166 168
19.2511 26.1617 232 94 166 168
19.7447 26.1617 232 94 166 168
20.2383 26.1617 232 93 165 167
20.7319 26.1617 232 93 165 167
21.2255 26.1617 232 93 165 167
21.7191 26.1617 232 94 165 167
22.117 26.0489 231 93 164 167
22.6085 26.0489 231 93 164 167
23.1 26.0489 231 92 163 165
23.5915 26.0489 231 93 164 166
24.083 26.0489 231 94 165 167
24.5745 26.0489 231 94 165 167
25.066 26.0489 231 94 165 167
25.5574 26.0489 231 93 165 167
26.0489 26.0489 231 93 165 167
26.5404 26.0489 231 93 165 167
27.0319 26.0489 231 93 165 167
27.5234 26.0489 231 93 165 167
28.0149 26.0489 231 93 165 167
28.5064 26.0489 231 92 164 166
28.9979 26.0489 231 91 163 165
29.4894 26.0489 231 91 160 163
29.8511 25.9362 230 88 157 160
30.3404 25.9362 230 91 156 159
30.8298 25.9362 230 80 145 148
31.0468 25.7106 228 44 92 94
31.2553 25.4851 226 7 55 56
31.7362 25.4851 226 17 44 44
32.217 25.4851 226 21 49 49
32.6979 25.4851 226 17 49 50
33.1787 25.4851 226 65 96 98
33.6596 25.4851 226 76 129 130
34.1404 25.4851 226 72 125 125
34.7745 25.5979 227 73 132 136
35.2574 25.5979 227 85 144 147
35.7404 25.5979 227 92 153 154
36.2234 25.5979 227 90 151 152
36.7064 25.5979 227 93 145 139
36.3702 25.034 222 85 137 131
3.24681 25.0468 218 107 144 129
3.91489 26.4255 230 94 159 157
4.4234 26.5404 231 91 156 154
4.91489 26.5404 231 89 156 158
5.40638 26.5404 231 94 160 162
5.89787 26.5404 231 95 164 167
6.38936 26.5404 231 96 165 168
6.88085 26.5404 231 97 165 168
7.34043 26.4255 230 94 163 165
7.82979 26.4255 230 96 163 164
8.31915 26.4255 230 97 164 165
8.80851 26.4255 230 95 163 164
9.29787 26.4255 230 93 161 163
9.82979 26.5404 231 91 160 162
10.3213 26.5404 231 91 160 163
10.8128 26.5404 231 91 162 164
11.3043 26.5404 231 91 162 164
11.7957 26.5404 231 92 164 166
12.2872 26.5404 231 93 165 167
12.7787 26.5404 231 94 166 168
13.2702 26.5404 231 92 164 166
13.7617 26.5404 231 94 166 168
14.2532 26.5404 231 94 166 168
14.7447 26.5404 231 94 166 168
15.2362 26.5404 231 94 166 168
15.7277 26.5404 231 94 166 168
16.2191 26.5404 231 95 167 169
16.7106 26.5404 231 94 166 168
17.2021 26.5404 231 94 166 168
17.6936 26.5404 231 94 166 168
18.1851 26.5404 231 94 166 168
18.6766 26.5404 231 94 166 168
19.1681 26.5404 231 94 166 168
19.6596 26.5404 231 94 166 168
20.1511 26.5404 231 93 165 167
20.6426 26.5404 231 93 165 167
21.134 26.5404 231 93 165 167
21.6255 26.5404 231 93 165 167
22.117 26.5404 231 93 165 167
22.6085 26.5404 231 93 165 167
23.1 26.5404 231 91 163 165
23.5915 26.5404 231 92 164 166
24.083 26.5404 231 93 165 167
24.5745 26.5404 231 93 165 167
25.066 26.5404 231 93 165 167
25.5574 26.5404 231 93 165 167
26.0489 26.5404 231 93 165 167
26.5404 26.5404 231 93 165 167
27.0319 26.5404 231 93 165 167
27.5234 26.5404 231 93 165 167
28.0149 26.5404 231 93 165 167
28.5064 26.5404 231 91 163 165
28.8723 26.4255 230 89 161 163
29.3617 26.4255 230 91 160 163
29.8511 26.4255 230 89 158 161
30.3404 26.4255 230 89 157 160
30.6957 26.3106 229 84 152 154
31.0468 26.1957 228 68 125 127
31.3936 26.0809 227 26 83 85
31.7362 25.966 226 28 66 66
32.217 25.966 226 22 59 60
32.6979 25.966 226 22 61 62
33.1787 25.966 226 72 111 113
33.6596 25.966 226 68 122 124
34.1404 25.966 226 68 123 124
34.7745 26.0809 227 75 135 139
35.2574 26.0809 227 88 148 152
35.7404 26.0809 227 91 153 154
36.2234 26.0809 227 90 152 153
36.7064 26.0809 227 93 146 141
3.20213 25.1596 215 105 141 122
3.89787 26.7979 229 93 158 156
4.40426 26.9149 230 93 157 156
4.89362 26.9149 230 95 162 164
5.40638 27.0319 231 96 163 165
5.87234 26.9149 230 96 162 166
6.3617 26.9149 230 95 162 166
6.85106 26.9149 230 96 161 162
7.30851 26.7979 229 92 157 158
7.79574 26.7979 229 96 157 155
8.28298 26.7979 229 97 158 156
8.77021 26.7979 229 95 158 158
9.25745 26.7979 229 96 159 159
9.78723 26.9149 230 91 160 161
10.2766 26.9149 230 93 161 162
10.766 26.9149 230 94 163 166
11.3043 27.0319 231 95 164 167
11.7957 27.0319 231 94 166 168
12.2872 27.0319 231 95 166 168
12.7787 27.0319 231 96 168 170
13.2702 27.0319 231 96 168 170
13.7617 27.0319 231 96 168 170
14.2532 27.0319 231 96 168 170
14.7447 27.0319 231 95 167 169
15.2362 27.0319 231 95 167 169
15.7277 27.0319 231 94 166 168
16.2191 27.0319 231 95 167 169
16.7106 27.0319 231 94 166 168
17.2021 27.0319 231 94 166 168
17.6936 27.0319 231 94 166 168
18.1851 27.0319 231 93 165 167
18.6766 27.0319 231 93 165 167
19.1681 27.0319 231 94 166 168
19.6596 27.0319 231 94 166 168
20.1511 27.0319 231 93 165 167
20.6426 27.0319 231 93 165 167
21.134 27.0319 231 93 165 167
21.6255 27.0319 231 93 165 167
22.117 27.0319 231 93 165 167
22.6085 27.0319 231 94 166 168
23 26.9149 230 93 165 167
23.4894 26.9149 230 93 165 167
23.9787 26.9149 230 93 165 167
24.4681 26.9149 230 93 165 167
24.9574 26.9149 230 93 165 167
25.4468 26.9149 230 94 166 168
25.9362 26.9149 230 93 165 167
26.4255 26.9149 230 93 165 167
26.9149 26.9149 230 93 165 167
27.4043 26.9149 230 93 165 167
27.8936 26.9149 230 92 164 166
28.383 26.9149 230 90 162 164
28.8723 26.9149 230 88 160 162
29.3617 26.9149 230 91 160 163
29.8511 26.9149 230 90 159 162
30.2085 26.7979 229 90 159 162
30.6957 26.7979 229 85 155 158
31.0468 26.6809 228 83 145 149
31.3936 26.5638 227 62 125 129
31.7362 26.4468 226 56 107 108
32.217 26.4468 226 31 82 83
32.6979 26.4468 226 39 85 88
33.1787 26.4468 226 54 100 103
33.6596 26.4468 226 59 115 116
34.1404 26.4468 226 73 129 131
34.6213 26.4468 226 80 142 146
35.2574 26.5638 227 90 152 156
35.7404 26.5638 227 91 154 155
36.2234 26.5638 227 91 154 155
36.5447 26.4468 226 94 147 142
3.18723 25.4979 214 97 132 110
3.88085 27.166 228 92 155 154
4.38511 27.2851 229 97 160 159
4.87234 27.2851 229 98 165 167
5.38298 27.4043 230 96 163 165
5.84681 27.2851 229 94 159 162
6.33404 27.2851 229 86 150 153
6.79149 27.166 228 89 143 140
7.2766 27.166 228 84 138 135
7.72766 27.0468 227 87 135 127
8.21064 27.0468 227 87 135 127
8.73191 27.166 228 92 148 145
9.25745 27.2851 229 100 156 153
9.74468 27.2851 229 94 159 159
10.2319 27.2851 229 96 162 162
10.766 27.4043 230 96 163 165
11.2553 27.4043 230 96 163 165
11.7447 27.4043 230 97 166 167
12.234 27.4043 230 98 167 168
12.7234 27.4043 230 99 168 169
13.2128 27.4043 230 97 166 167
13.7021 27.4043 230 96 168 168
14.1915 27.4043 230 96 168 168
14.6809 27.4043 230 96 168 168
15.1702 27.4043 230 95 167 167
15.6596 27.4043 230 96 168 168
16.1489 27.4043 230 95 167 167
16.6383 27.4043 230 94 166 166
17.1277 27.4043 230 93 165 165
17.617 27.4043 230 94 166 168
18.1064 27.4043 230 94 166 168
18.5957 27.4043 230 95 167 169
19.0851 27.4043 230 94 166 168
19.5745 27.4043 230 97 166 169
20.0638 27.4043 230 96 165 168
20.5532 27.4043 230 93 165 167
21.0426 27.4043 230 93 165 167
21.5319 27.4043 230 94 166 168
22.0213 27.4043 230 94 166 168
22.5106 27.4043 230 93 165 167
23 27.4043 230 93 165 167
23.4894 27.4043 230 94 166 168
23.9787 27.4043 230 93 165 167
24.4681 27.4043 230 92 164 166
24.9574 27.4043 230 93 165 167
25.4468 27.4043 230 93 165 167
25.9362 27.4043 230 93 165 167
26.4255 27.4043 230 94 163 166
26.9149 27.4043 230 94 163 166
27.4043 27.4043 230 94 163 166
27.8936 27.4043 230 92 161 164
28.383 27.4043 230 88 160 162
28.7468 27.2851 229 87 159 161
29.234 27.2851 229 88 160 162
29.7213 27.2851 229 88 160 162
30.2085 27.2851 229 87 159 161
30.5617 27.166 228 88 159 161
31.0468 27.166 228 86 152 156
31.3936 27.0468 227 77 143 147
31.8766 27.0468 227 77 136 137
32.217 26.9277 226 63 122 123
32.6979 26.9277 226 60 114 115
33.1787 26.9277 226 63 118 119
33.6596 26.9277 226 68 129 130
34.1404 26.9277 226 84 144 146
34.6213 26.9277 226 87 149 153
35.1021 26.9277 226 93 155 159
35.7404 27.0468 227 94 157 158
36.0638 26.9277 226 93 156 157
3.18723 25.9532 214 96 129 107
3.84681 27.4085 226 94 157 157
4.36596 27.6511 228 99 162 162
4.87234 27.7723 229 97 166 168
5.35957 27.7723 229 92 160 163
5.82128 27.6511 228 88 147 147
6.30638 27.6511 228 77 136 136
6.73191 27.4085 226 90 133 123
7.18085 27.2872 225 87 130 120
7.65957 27.2872 225 87 125 111
8.1383 27.2872 225 83 121 107
8.65532 27.4085 226 81 125 119
9.1766 27.5298 227 88 133 126
9.70213 27.6511 228 93 156 155
10.2319 27.7723 229 95 158 157
10.7191 27.7723 229 96 163 165
11.2553 27.8936 230 96 163 165
11.7447 27.8936 230 96 165 166
12.234 27.8936 230 96 164 166
12.7234 27.8936 230 97 166 167
13.2128 27.8936 230 97 166 167
13.7021 27.8936 230 97 167 167
14.1915 27.8936 230 97 167 167
14.6809 27.8936 230 97 169 169
15.1702 27.8936 230 96 168 168
15.6596 27.8936 230 96 168 168
16.1489 27.8936 230 94 166 166
16.6383 27.8936 230 94 166 166
17.1277 27.8936 230 93 165 165
17.617 27.8936 230 94 166 167
18.1064 27.8936 230 94 166 167
18.5957 27.8936 230 95 167 168
19.0851 27.8936 230 95 167 167
19.5745 27.8936 230 96 167 168
20.0638 27.8936 230 95 166 167
20.5532 27.8936 230 93 165 167
21.0426 27.8936 230 93 165 167
21.5319 27.8936 230 94 166 168
22.0213 27.8936 230 92 164 166
22.5106 27.8936 230 94 164 167
23 27.8936 230 95 165 168
23.4894 27.8936 230 95 165 167
23.8745 27.7723 229 94 164 166
24.3617 27.7723 229 91 163 165
24.8489 27.7723 229 91 163 165
25.3362 27.7723 229 92 164 166
25.8234 27.7723 229 92 164 166
26.3106 27.7723 229 92 161 164
26.7979 27.7723 229 93 162 165
27.2851 27.7723 229 92 161 164
27.7723 27.7723 229 91 160 163
28.2596 27.7723 229 89 159 162
28.7468 27.7723 229 89 160 162
29.234 27.7723 229 91 161 163
29.7213 27.7723 229 92 162 165
30.0766 27.6511 228 90 160 163
30.5617 27.6511 228 89 159 162
30.9106 27.5298 227 89 157 160
31.3936 27.5298 227 85 154 157
31.8766 27.5298 227 87 152 152
32.217 27.4085 226 82 147 147
32.6979 27.4085 226 82 144 144
33.1787 27.4085 226 81 142 143
33.6596 27.4085 226 85 147 147
34.1404 27.4085 226 91 153 153
34.6213 27.4085 226 93 154 155
35.1021 27.4085 226 96 157 158
35.583 27.4085 226 98 157 155
36.0638 27.4085 226 97 156 154
3.17234 26.2851 213 96 128 107
3.82979 27.766 225 94 157 157
4.34681 28.0128 227 98 160 160
4.85106 28.1362 228 96 165 167
5.33617 28.1362 228 87 155 158
5.79574 28.0128 227 75 126 125
6.25106 27.8894 226 70 121 120
6.70213 27.766 225 89 123 107
7.11702 27.5191 223 92 125 110
7.55745 27.3957 222 89 121 102
8.02979 27.3957 222 82 113 95
8.54043 27.5191 223 74 110 98
9.09574 27.766 225 76 112 100
9.65957 28.0128 227 84 144 142
10.1872 28.1362 228 95 154 153
10.7191 28.2596 229 96 163 165
11.2064 28.2596 229 96 163 166
11.6936 28.2596 229 96 164 166
12.234 28.383 230 97 166 168
12.7234 28.383 230 98 167 169
13.2128 28.383 230 97 166 168
13.7021 28.383 230 96 166 168
14.1915 28.383 230 96 166 168
14.6809 28.383 230 97 169 169
15.1702 28.383 230 97 169 169
15.6596 28.383 230 95 167 167
16.1489 28.383 230 94 166 166
16.566 28.2596 229 94 166 166
17.0532 28.2596 229 93 165 165
17.5404 28.2596 229 94 166 166
18.0277 28.2596 229 94 166 166
18.5149 28.2596 229 95 167 167
19.0021 28.2596 229 95 167 167
19.4894 28.2596 229 95 167 167
19.9766 28.2596 229 93 165 165
20.4638 28.2596 229 93 165 167
20.9511 28.2596 229 92 164 166
21.4383 28.2596 229 94 166 168
21.9255 28.2596 229 91 163 165
22.4128 28.2596 229 95 164 167
22.9 28.2596 229 95 164 167
23.3872 28.2596 229 94 163 166
23.8745 28.2596 229 93 162 165
24.3617 28.2596 229 91 162 164
24.8489 28.2596 229 90 161 164
25.3362 28.2596 229 92 163 165
25.8234 28.2596 229 92 163 165
26.3106 28.2596 229 91 160 163
26.7979 28.2596 229 92 161 164
27.2851 28.2596 229 91 160 163
27.7723 28.2596 229 91 160 163
28.1362 28.1362 228 90 159 162
28.6213 28.1362 228 91 160 163
29.1064 28.1362 228 93 162 165
29.5915 28.1362 228 94 163 166
30.0766 28.1362 228 92 160 163
30.4277 28.0128 227 90 158 161
30.9106 28.0128 227 90 158 160
31.3936 28.0128 227 90 158 160
31.8766 28.0128 227 92 159 157
32.217 27.8894 226 91 158 157
32.6979 27.8894 226 94 159 157
33.1787 27.8894 226 92 156 155
33.6596 27.8894 226 96 157 155
34.1404 27.8894 226 96 157 155
34.6213 27.8894 226 99 156 153
35.1021 27.8894 226 100 157 154
35.583 27.8894 226 103 155 147
3.15745 26.6128 212 96 128 107
3.79574 27.9936 223 92 153 152
4.32766 28.3702 226 96 157 156
4.82979 28.4957 227 95 161 163
5.31277 28.4957 227 80 146 148
5.77021 28.3702 226 56 97 96
6.19574 28.1191 224 62 103 102
6.64255 27.9936 223 82 108 89
7.08511 27.8681 222 92 118 99
7.55745 27.8681 222 86 114 94
8.02979 27.8681 222 80 107 88
8.50213 27.8681 222 71 101 85
9.01489 27.9936 223 65 95 80
9.61702 28.3702 226 66 122 120
10.1872 28.6213 228 96 151 150
10.6723 28.6213 228 95 161 165
11.2064 28.7468 229 97 164 168
11.6936 28.7468 229 98 165 169
12.1809 28.7468 229 103 170 174
12.6681 28.7468 229 101 170 173
13.1553 28.7468 229 98 167 170
13.6426 28.7468 229 95 167 169
14.1298 28.7468 229 95 167 169
14.617 28.7468 229 96 168 170
15.1043 28.7468 229 96 168 170
15.5915 28.7468 229 94 166 166
16.0787 28.7468 229 93 165 165
16.566 28.7468 229 93 164 165
17.0532 28.7468 229 92 164 164
17.5404 28.7468 229 94 166 166
18.0277 28.7468 229 94 165 166
18.5149 28.7468 229 94 166 166
19.0021 28.7468 229 94 166 166
19.4894 28.7468 229 94 166 166
19.9766 28.7468 229 92 164 164
20.4638 28.7468 229 92 164 166
20.9511 28.7468 229 90 162 164
21.4383 28.7468 229 93 165 167
21.9255 28.7468 229 92 164 166
22.4128 28.7468 229 95 164 167
22.9 28.7468 229 94 163 166
23.3872 28.7468 229 92 161 164
23.8745 28.7468 229 92 161 164
24.2553 28.6213 228 92 161 164
24.7404 28.6213 228 91 160 163
25.2255 28.6213 228 92 161 164
25.7106 28.6213 228 91 160 163
26.1957 28.6213 228 90 159 162
26.6809 28.6213 228 91 160 163
27.166 28.6213 228 92 161 164
27.6511 28.6213 228 92 161 164
28.1362 28.6213 228 91 160 163
28.6213 28.6213 228 91 160 163
29.1064 28.6213 228 94 162 165
29.5915 28.6213 228 94 162 165
29.9447 28.4957 227 93 159 160
30.4277 28.4957 227 89 156 157
30.9106 28.4957 227 90 156 155
31.3936 28.4957 227 91 158 157
31.7362 28.3702 226 94 157 155
32.217 28.3702 226 94 157 155
32.6979 28.3702 226 96 158 154
33.1787 28.3702 226 96 157 154
33.6596 28.3702 226 100 157 151
34.1404 28.3702 226 99 156 150
3.15745 27.0638 212 99 126 104
3.7617 28.2128 221 87 145 143
4.32766 28.8511 226 97 155 153
4.80851 28.8511 226 92 155 159
5.28936 28.8511 226 66 129 133
5.74468 28.7234 225 26 61 58
6.16809 28.4681 223 35 70 68
6.61277 28.3404 222 55 75 62
7.05319 28.2128 221 66 86 73
7.5234 28.2128 221 67 88 71
7.99362 28.2128 221 65 86 68
8.46383 28.2128 221 56 81 67
8.97447 28.3404 222 55 80 65
9.48936 28.4681 223 45 95 93
10.0979 28.8511 226 92 142 141
10.6723 29.1064 228 92 157 162
11.1574 29.1064 228 97 161 166
11.6426 29.1064 228 99 166 170
12.1809 29.234 229 100 167 171
12.6681 29.234 229 98 167 170
13.1553 29.234 229 99 168 171
13.6426 29.234 229 98 167 170
14.1298 29.234 229 98 167 170
14.617 29.234 229 97 166 169
15.1043 29.234 229 96 165 168
15.5915 29.234 229 96 165 168
16.0787 29.234 229 95 164 167
16.566 29.234 229 92 161 164
17.0532 29.234 229 92 161 164
17.5404 29.234 229 94 163 166
17.9489 29.1064 228 92 162 164
18.434 29.1064 228 92 164 166
