ply
format ascii 1.0
comment Created by Open3D
element vertex 1771
property double x
property double y
property double z
property uchar red
property uchar green
property uchar blue
end_header
45.2343 26.3985 173 3 12 5
45.5152 26.3985 173 4 13 6
45.5315 26.2459 172 4 13 6
45.8108 26.2459 172 5 14 7
46.0901 26.2459 172 5 14 7
46.3695 26.2459 172 4 13 6
46.6488 26.2459 172 4 13 6
46.9281 26.2459 172 4 13 6
47.2075 26.2459 172 4 13 6
47.4868 26.2459 172 4 13 6
47.7661 26.2459 172 4 13 6
48.0455 26.2459 172 5 14 7
48.0438 26.0933 171 5 14 7
48.3216 26.0933 171 5 14 7
48.5993 26.0933 171 5 14 7
48.877 26.0933 171 5 14 7
49.1547 26.0933 171 5 14 7
49.4324 26.0933 171 4 14 6
49.7101 26.0933 171 4 14 6
49.9878 26.0933 171 3 15 7
50.2655 26.0933 171 4 16 8
50.2477 25.9407 170 4 16 8
50.5238 25.9407 170 4 16 8
50.7998 25.9407 170 5 16 9
51.0759 25.9407 170 6 17 9
51.352 25.9407 170 7 19 11
51.6281 25.9407 170 10 22 14
51.9042 25.9407 170 9 23 14
51.8733 25.7881 169 20 33 24
50.9135 25.1778 165 72 90 66
7.89281 24.983 162 77 96 68
8.15591 24.983 162 78 97 69
8.419 24.983 162 74 92 67
8.6821 24.983 162 47 65 40
9.00041 25.1372 163 16 28 14
9.43565 25.5998 166 9 22 8
9.82217 25.9082 168 14 24 12
10.1551 26.0625 169 13 23 11
10.4913 26.2167 170 13 22 13
10.7674 26.2167 170 12 21 12
11.0434 26.2167 170 10 23 10
11.3861 26.3709 171 10 23 10
11.6638 26.3709 171 10 23 10
11.9415 26.3709 171 11 24 11
12.2907 26.5251 172 9 22 9
12.57 26.5251 172 9 22 9
12.8494 26.5251 172 8 20 10
13.1287 26.5251 172 6 18 8
13.408 26.5251 172 5 17 9
13.767 26.6793 173 4 16 8
14.0479 26.6793 173 6 15 6
14.3289 26.6793 173 5 14 5
14.6098 26.6793 173 5 14 5
14.8908 26.6793 173 4 13 5
15.1717 26.6793 173 4 13 4
15.4527 26.6793 173 5 14 5
15.7337 26.6793 173 2 14 6
16.0146 26.6793 173 2 14 6
16.2956 26.6793 173 2 14 6
16.5765 26.6793 173 2 14 6
16.8575 26.6793 173 1 13 5
17.1384 26.6793 173 1 13 5
17.4194 26.6793 173 3 12 5
17.7004 26.6793 173 3 12 5
18.0853 26.8335 174 3 12 5
18.3678 26.8335 174 1 10 3
18.6504 26.8335 174 1 10 1
19.0418 26.9878 175 1 10 1
19.4365 27.142 176 3 12 3
20.8429 28.6841 186 6 15 6
22.0544 29.9179 194 12 20 12
22.6001 30.2263 196 12 21 12
23.0353 30.3805 197 9 21 13
23.4738 30.5347 198 8 20 12
23.9156 30.6889 199 8 20 10
24.3605 30.8432 200 6 18 8
24.6853 30.8432 200 8 20 10
25.1352 30.9974 201 8 20 10
25.4616 30.9974 201 9 21 11
25.9164 31.1516 202 9 21 11
26.2444 31.1516 202 10 22 12
26.704 31.3058 203 8 20 10
27.0337 31.3058 203 6 18 8
27.3634 31.3058 203 4 16 6
27.6931 31.3058 203 3 15 7
28.0227 31.3058 203 2 14 6
28.3524 31.3058 203 3 12 5
28.6821 31.3058 203 3 12 5
29.0118 31.3058 203 3 12 5
29.3415 31.3058 203 3 12 5
29.6711 31.3058 203 3 12 5
30.0008 31.3058 203 3 12 5
30.3305 31.3058 203 3 12 5
30.6602 31.3058 203 4 13 6
30.9898 31.3058 203 3 12 5
31.3195 31.3058 203 4 13 6
31.6492 31.3058 203 3 12 5
31.9789 31.3058 203 3 12 5
32.3086 31.3058 203 3 12 5
32.6382 31.3058 203 3 12 5
32.8055 31.1516 202 3 12 5
33.1336 31.1516 202 3 12 5
33.4616 31.1516 202 3 12 5
33.7897 31.1516 202 3 12 5
34.1177 31.1516 202 3 12 5
34.4458 31.1516 202 3 12 5
34.7739 31.1516 202 3 12 5
35.1019 31.1516 202 3 12 5
35.43 31.1516 202 3 12 5
35.758 31.1516 202 3 12 5
36.0861 31.1516 202 3 12 5
36.2339 30.9974 201 3 12 5
36.5603 30.9974 201 3 12 5
36.8867 30.9974 201 3 12 5
37.2132 30.9974 201 3 12 5
37.5396 30.9974 201 3 12 5
37.866 30.9974 201 3 12 5
38.1924 30.9974 201 3 12 5
38.5189 30.9974 201 4 13 6
38.8453 30.9974 201 4 13 6
39.1717 30.9974 201 3 12 5
39.4982 30.9974 201 3 12 5
39.8246 30.9974 201 3 12 5
39.9513 30.8432 200 3 12 5
40.2761 30.8432 200 3 12 5
40.6009 30.8432 200 3 12 5
40.9257 30.8432 200 4 13 6
41.2505 30.8432 200 1 10 3
41.5753 30.8432 200 3 12 5
41.9001 30.8432 200 1 10 3
42.2249 30.8432 200 3 12 5
42.5497 30.8432 200 3 12 5
42.8745 30.8432 200 3 12 5
43.1994 30.8432 200 3 12 5
43.5242 30.8432 200 3 12 5
43.849 30.8432 200 1 10 3
44.1738 30.8432 200 3 12 5
44.2761 30.6889 199 3 12 5
44.5993 30.6889 199 3 12 5
44.9225 30.6889 199 3 12 5
45.2456 30.6889 199 3 12 5
45.5688 30.6889 199 4 13 6
45.892 30.6889 199 1 10 3
46.2152 30.6889 199 3 12 5
46.5384 30.6889 199 3 12 5
46.8616 30.6889 199 3 12 5
47.1847 30.6889 199 3 12 5
47.2692 30.5347 198 3 12 5
47.5907 30.5347 198 3 12 5
47.9123 30.5347 198 3 12 5
48.2339 30.5347 198 3 12 5
48.5554 30.5347 198 4 13 6
48.877 30.5347 198 3 12 5
49.1985 30.5347 198 3 12 5
49.5201 30.5347 198 4 13 6
49.8417 30.5347 198 3 12 5
50.1632 30.5347 198 3 12 5
50.2298 30.3805 197 3 12 5
50.5497 30.3805 197 3 12 5
50.3532 30.0721 195 4 13 6
48.5911 28.8383 187 3 12 5
46.0187 27.142 176 3 12 5
45.5152 26.6793 173 4 13 6
45.5315 26.5251 172 4 13 6
45.8108 26.5251 172 4 13 6
46.0901 26.5251 172 4 13 6
46.3695 26.5251 172 4 13 6
46.6488 26.5251 172 4 13 6
46.9281 26.5251 172 4 13 6
47.2075 26.5251 172 4 13 6
47.4868 26.5251 172 4 13 6
47.7661 26.5251 172 4 13 6
48.0455 26.5251 172 5 14 7
48.0438 26.3709 171 5 14 7
48.3216 26.3709 171 4 13 6
48.5993 26.3709 171 4 13 6
48.877 26.3709 171 5 14 7
49.1547 26.3709 171 5 14 7
49.4324 26.3709 171 3 15 7
49.7101 26.3709 171 3 15 7
49.9878 26.3709 171 3 15 7
50.2655 26.3709 171 4 16 8
50.2477 26.2167 170 4 16 8
50.5238 26.2167 170 3 15 7
50.7998 26.2167 170 6 15 8
51.0759 26.2167 170 7 16 9
51.352 26.2167 170 6 18 10
51.6281 26.2167 170 9 21 13
51.9042 26.2167 170 10 22 14
51.8733 26.0625 169 6 18 10
51.2221 25.5998 166 55 71 51
7.89281 25.2459 162 79 98 70
8.15591 25.2459 162 77 96 68
8.419 25.2459 162 36 50 32
8.73569 25.4018 163 14 27 9
9.16606 25.8693 166 13 23 13
9.54933 26.181 168 12 22 12
9.88063 26.3368 169 11 23 13
10.2152 26.4926 170 11 23 13
10.4913 26.4926 170 10 22 12
10.7674 26.4926 170 10 22 12
11.1084 26.6485 171 12 22 10
11.3861 26.6485 171 12 22 10
11.6638 26.6485 171 10 23 10
12.0114 26.8043 172 11 24 11
12.2907 26.8043 172 9 21 11
12.57 26.8043 172 8 20 10
12.8494 26.8043 172 8 20 10
13.1287 26.8043 172 6 18 8
13.486 26.9602 173 5 17 9
13.767 26.9602 173 4 16 8
14.0479 26.9602 173 4 16 8
14.3289 26.9602 173 4 16 8
14.6098 26.9602 173 6 15 8
14.8908 26.9602 173 6 15 8
15.1717 26.9602 173 5 14 7
15.4527 26.9602 173 5 14 7
15.7337 26.9602 173 3 15 7
16.0146 26.9602 173 3 15 7
16.2956 26.9602 173 2 14 6
16.5765 26.9602 173 2 14 6
16.8575 26.9602 173 4 13 6
17.1384 26.9602 173 4 13 6
17.4194 26.9602 173 3 12 5
17.7004 26.9602 173 3 12 5
18.0853 27.116 174 3 12 5
18.3678 27.116 174 1 10 3
18.6504 27.116 174 1 10 3
18.933 27.116 174 3 12 4
19.326 27.2718 175 3 12 3
20.3946 28.3627 182 4 13 4
21.7134 29.7653 191 9 17 9
22.7154 30.7003 197 11 20 11
23.1523 30.8561 198 9 21 11
23.5924 31.012 199 8 20 10
24.0357 31.1678 200 6 18 8
24.3605 31.1678 200 6 18 8
24.8088 31.3237 201 8 20 10
25.1352 31.3237 201 10 22 12
25.5883 31.4795 202 12 24 14
25.9164 31.4795 202 10 22 12
26.3743 31.6353 203 8 20 10
26.704 31.6353 203 5 17 7
27.0337 31.6353 203 4 16 8
27.3634 31.6353 203 3 15 7
27.6931 31.6353 203 4 13 6
28.0227 31.6353 203 4 13 6
28.3524 31.6353 203 3 12 5
28.6821 31.6353 203 3 12 5
29.0118 31.6353 203 3 12 5
29.3415 31.6353 203 3 12 5
29.6711 31.6353 203 4 13 6
30.0008 31.6353 203 3 12 5
30.3305 31.6353 203 3 12 5
30.6602 31.6353 203 3 12 5
30.9898 31.6353 203 4 11 5
31.3195 31.6353 203 5 12 6
31.6492 31.6353 203 3 12 5
31.9789 31.6353 203 4 13 6
32.3086 31.6353 203 3 12 5
32.6382 31.6353 203 3 12 5
32.8055 31.4795 202 3 12 5
33.1336 31.4795 202 3 12 5
33.4616 31.4795 202 1 10 3
33.7897 31.4795 202 3 12 5
34.1177 31.4795 202 4 11 5
34.4458 31.4795 202 4 11 5
34.7739 31.4795 202 4 11 5
35.1019 31.4795 202 4 11 5
35.43 31.4795 202 1 10 3
35.758 31.4795 202 3 12 5
36.0861 31.4795 202 3 12 5
36.2339 31.3237 201 3 12 5
36.5603 31.3237 201 3 12 5
36.8867 31.3237 201 3 12 5
37.2132 31.3237 201 3 12 5
37.5396 31.3237 201 3 12 5
37.866 31.3237 201 3 12 5
38.1924 31.3237 201 1 10 3
38.5189 31.3237 201 3 12 5
38.8453 31.3237 201 3 12 5
39.1717 31.3237 201 3 12 5
39.4982 31.3237 201 3 12 5
39.8246 31.3237 201 3 12 5
39.9513 31.1678 200 3 12 5
40.2761 31.1678 200 3 12 5
40.6009 31.1678 200 1 10 3
40.9257 31.1678 200 1 10 3
41.2505 31.1678 200 1 10 3
41.5753 31.1678 200 1 10 3
41.9001 31.1678 200 1 10 3
42.2249 31.1678 200 1 10 3
42.5497 31.1678 200 3 12 5
42.8745 31.1678 200 3 12 5
43.1994 31.1678 200 3 12 5
43.5242 31.1678 200 3 12 5
43.849 31.1678 200 1 10 3
44.1738 31.1678 200 4 13 6
44.2761 31.012 199 3 12 5
44.5993 31.012 199 3 12 5
44.9225 31.012 199 4 13 6
45.2456 31.012 199 4 13 6
45.5688 31.012 199 4 13 6
45.892 31.012 199 3 12 5
46.2152 31.012 199 3 12 5
46.5384 31.012 199 3 12 5
46.8616 31.012 199 3 12 5
47.1847 31.012 199 3 12 5
47.2692 30.8561 198 3 12 5
47.5907 30.8561 198 4 11 5
47.9123 30.8561 198 4 11 5
48.2339 30.8561 198 4 11 5
48.5554 30.8561 198 4 11 5
48.877 30.8561 198 4 13 6
49.1985 30.8561 198 4 13 6
49.5201 30.8561 198 4 13 6
49.8417 30.8561 198 3 12 5
50.1632 30.8561 198 3 12 5
50.2298 30.7003 197 3 12 5
50.5497 30.7003 197 3 12 5
50.6114 30.5445 196 3 12 5
49.6305 29.7653 191 3 12 5
47.5875 28.3627 182 4 13 6
45.5152 26.9602 173 4 13 6
45.7962 26.9602 173 3 12 5
45.8108 26.8043 172 4 13 6
46.0901 26.8043 172 4 13 6
46.3695 26.8043 172 5 14 7
46.6488 26.8043 172 5 14 7
46.9281 26.8043 172 5 14 7
47.2075 26.8043 172 4 13 6
47.4868 26.8043 172 4 13 6
47.7661 26.8043 172 4 13 6
48.0455 26.8043 172 5 14 7
48.0438 26.6485 171 4 13 6
48.3216 26.6485 171 4 13 6
48.5993 26.6485 171 5 14 7
48.877 26.6485 171 2 14 6
49.1547 26.6485 171 2 14 6
49.4324 26.6485 171 2 14 6
49.7101 26.6485 171 4 16 8
49.9878 26.6485 171 4 16 8
50.2655 26.6485 171 3 15 7
50.2477 26.4926 170 3 15 7
50.5238 26.4926 170 3 15 7
50.7998 26.4926 170 4 16 8
51.0759 26.4926 170 5 17 9
51.352 26.4926 170 5 17 9
51.6281 26.4926 170 6 18 10
51.9042 26.4926 170 10 22 14
51.8733 26.3368 169 9 21 13
51.8392 26.181 168 22 36 22
51.1815 25.7135 165 87 100 86
7.89281 25.5089 162 71 89 62
8.15591 25.5089 162 41 59 32
8.47097 25.6664 163 21 32 17
8.89647 26.1388 166 12 23 8
9.27649 26.4537 168 12 23 13
9.60617 26.6111 169 12 23 13
9.9391 26.7686 170 11 23 13
10.2152 26.7686 170 10 22 12
10.553 26.9261 171 10 22 12
10.8307 26.9261 171 10 22 12
11.1084 26.9261 171 11 22 11
11.4527 27.0835 172 11 22 11
11.732 27.0835 172 10 23 10
12.0114 27.0835 172 10 23 10
12.2907 27.0835 172 9 21 11
12.57 27.0835 172 8 20 10
12.9241 27.241 173 8 20 10
13.205 27.241 173 7 19 9
13.486 27.241 173 6 18 10
13.767 27.241 173 5 17 9
14.0479 27.241 173 4 16 8
14.3289 27.241 173 4 16 8
14.6098 27.241 173 5 16 8
14.8908 27.241 173 4 15 7
15.1717 27.241 173 4 13 6
15.4527 27.241 173 4 13 6
15.7337 27.241 173 4 14 7
16.0146 27.241 173 4 14 6
16.2956 27.241 173 3 13 5
16.5765 27.241 173 3 13 6
16.8575 27.241 173 4 13 6
17.1384 27.241 173 3 12 5
17.4194 27.241 173 2 11 4
17.7004 27.241 173 2 11 4
18.0853 27.3985 174 3 12 5
18.3678 27.3985 174 1 10 3
18.6504 27.3985 174 2 9 3
18.933 27.3985 174 2 10 4
19.326 27.5559 175 2 11 3
20.0585 28.1858 179 3 12 5
21.486 29.7604 189 6 15 6
22.7154 31.0201 197 10 19 10
23.1523 31.1776 198 8 20 10
23.5924 31.335 199 8 20 10
24.0357 31.4925 200 7 19 9
24.4823 31.6499 201 7 19 9
24.8088 31.6499 201 9 21 11
25.2603 31.8074 202 10 22 12
25.5883 31.8074 202 10 22 13
26.0447 31.9649 203 9 21 12
26.3743 31.9649 203 6 18 9
26.704 31.9649 203 4 16 7
27.0337 31.9649 203 3 15 7
27.3634 31.9649 203 2 14 6
27.6931 31.9649 203 4 13 6
28.0227 31.9649 203 4 13 6
28.3524 31.9649 203 4 13 6
28.6821 31.9649 203 3 12 5
29.0118 31.9649 203 3 12 5
29.3415 31.9649 203 3 12 5
29.6711 31.9649 203 3 12 5
30.0008 31.9649 203 3 12 5
30.3305 31.9649 203 3 12 5
30.6602 31.9649 203 3 12 5
30.9898 31.9649 203 4 11 5
31.3195 31.9649 203 5 12 6
31.6492 31.9649 203 4 11 5
31.9789 31.9649 203 4 12 5
32.3086 31.9649 203 3 12 5
32.6382 31.9649 203 3 12 5
32.8055 31.8074 202 3 12 5
33.1336 31.8074 202 3 12 5
33.4616 31.8074 202 2 11 4
33.7897 31.8074 202 3 12 5
34.1177 31.8074 202 3 10 4
34.4458 31.8074 202 4 11 5
34.7739 31.8074 202 4 11 5
35.1019 31.8074 202 4 11 5
35.43 31.8074 202 2 11 4
35.758 31.8074 202 3 12 5
36.0861 31.8074 202 3 12 5
36.2339 31.6499 201 3 12 5
36.5603 31.6499 201 3 12 5
36.8867 31.6499 201 3 12 5
37.2132 31.6499 201 3 12 5
37.5396 31.6499 201 3 12 5
37.866 31.6499 201 3 12 5
38.1924 31.6499 201 1 10 3
38.5189 31.6499 201 3 12 5
38.8453 31.6499 201 3 12 5
39.1717 31.6499 201 3 12 5
39.4982 31.6499 201 3 12 5
39.8246 31.6499 201 2 11 4
39.9513 31.4925 200 2 11 4
40.2761 31.4925 200 3 12 5
40.6009 31.4925 200 1 10 3
40.9257 31.4925 200 2 11 4
41.2505 31.4925 200 2 11 4
41.5753 31.4925 200 2 11 4
41.9001 31.4925 200 2 11 4
42.2249 31.4925 200 1 10 3
42.5497 31.4925 200 3 12 5
42.8745 31.4925 200 2 11 4
43.1994 31.4925 200 2 11 4
43.5242 31.4925 200 2 11 4
43.849 31.4925 200 2 11 4
44.1738 31.4925 200 3 12 5
44.2761 31.335 199 3 12 5
44.5993 31.335 199 3 12 5
44.9225 31.335 199 3 12 5
45.2456 31.335 199 3 12 5
45.5688 31.335 199 3 12 5
45.892 31.335 199 3 12 5
46.2152 31.335 199 3 12 5
46.5384 31.335 199 3 12 5
46.8616 31.335 199 3 12 5
47.1847 31.335 199 3 12 5
47.2692 31.1776 198 3 12 5
47.5907 31.1776 198 3 12 5
47.9123 31.1776 198 3 12 5
48.2339 31.1776 198 3 12 5
48.5554 31.1776 198 4 12 6
48.877 31.1776 198 4 13 6
49.1985 31.1776 198 4 13 6
49.5201 31.1776 198 3 12 5
49.8417 31.1776 198 3 12 5
49.9099 31.0201 197 4 13 6
50.2298 31.0201 197 4 13 6
50.5497 31.0201 197 3 12 5
50.8697 31.0201 197 3 12 5
50.4101 30.5477 194 3 12 5
48.8948 29.4455 187 4 13 6
46.0414 27.5559 175 4 13 6
45.7962 27.241 173 4 13 6
45.8108 27.0835 172 4 13 6
46.0901 27.0835 172 3 12 5
46.3695 27.0835 172 4 13 6
46.6488 27.0835 172 4 13 6
46.9281 27.0835 172 4 13 6
47.2075 27.0835 172 4 13 6
47.4868 27.0835 172 4 13 6
47.7661 27.0835 172 5 14 7
48.0455 27.0835 172 5 14 7
48.0438 26.9261 171 4 13 6
48.3216 26.9261 171 4 13 6
48.5993 26.9261 171 5 14 7
48.877 26.9261 171 3 13 6
49.1547 26.9261 171 3 13 6
49.4324 26.9261 171 2 14 6
49.7101 26.9261 171 3 15 7
49.9878 26.9261 171 4 16 8
50.2655 26.9261 171 3 15 7
50.2477 26.7686 170 3 15 7
50.5238 26.7686 170 4 16 8
50.7998 26.7686 170 4 16 8
51.0759 26.7686 170 5 17 9
51.352 26.7686 170 5 17 9
51.6281 26.7686 170 6 18 10
51.9042 26.7686 170 9 21 13
51.8733 26.6111 169 10 22 14
52.1478 26.6111 169 11 24 14
51.4917 26.1388 166 58 70 60
7.89281 25.7719 162 66 84 59
8.15591 25.7719 162 14 32 7
8.52294 26.0901 164 16 26 12
9.00365 26.7264 168 15 25 11
9.33171 26.8855 169 11 23 13
9.66301 27.0446 170 11 23 13
9.9391 27.0446 170 11 23 13
10.2753 27.2037 171 10 22 12
10.553 27.2037 171 10 22 12
10.8307 27.2037 171 10 22 12
11.1734 27.3627 172 10 22 12
11.4527 27.3627 172 10 22 12
11.732 27.3627 172 9 22 10
12.0114 27.3627 172 9 21 9
12.3622 27.5218 173 9 21 12
12.6431 27.5218 173 9 21 12
12.9241 27.5218 173 10 22 13
13.205 27.5218 173 10 22 12
13.486 27.5218 173 7 19 11
13.767 27.5218 173 5 17 9
14.0479 27.5218 173 4 16 8
14.3289 27.5218 173 4 16 8
14.6098 27.5218 173 4 15 7
14.8908 27.5218 173 3 14 7
15.1717 27.5218 173 4 13 6
15.4527 27.5218 173 4 13 6
15.7337 27.5218 173 5 14 7
16.0146 27.5218 173 4 13 6
16.2956 27.5218 173 3 12 5
16.5765 27.5218 173 4 13 6
16.8575 27.5218 173 4 13 6
17.1384 27.5218 173 3 12 5
17.4194 27.5218 173 2 11 4
17.7004 27.5218 173 2 11 4
18.0853 27.6809 174 2 11 4
18.3678 27.6809 174 1 10 3
18.6504 27.6809 174 2 9 3
18.933 27.6809 174 2 9 3
19.2156 27.6809 174 1 10 3
19.8343 28.1582 177 2 11 4
21.1449 29.5899 186 4 13 5
22.6001 31.1808 196 9 18 10
23.2692 31.6581 199 8 20 10
23.7109 31.8171 200 9 21 11
24.1559 31.9762 201 9 21 11
24.4823 31.9762 201 9 21 11
24.9322 32.1353 202 9 21 11
25.2603 32.1353 202 9 21 11
25.715 32.2944 203 7 19 11
26.0447 32.2944 203 7 19 11
26.3743 32.2944 203 4 16 8
26.704 32.2944 203 3 15 7
27.0337 32.2944 203 3 14 7
27.3634 32.2944 203 3 14 6
27.6931 32.2944 203 4 13 6
28.0227 32.2944 203 4 13 6
28.3524 32.2944 203 4 13 6
28.6821 32.2944 203 3 12 5
29.0118 32.2944 203 2 11 4
29.3415 32.2944 203 3 12 5
29.6711 32.2944 203 3 12 5
30.0008 32.2944 203 3 12 5
30.3305 32.2944 203 3 12 5
30.6602 32.2944 203 2 11 4
30.9898 32.2944 203 3 11 4
31.3195 32.2944 203 4 12 6
31.6492 32.2944 203 4 11 5
31.9789 32.2944 203 4 11 5
32.3086 32.2944 203 3 12 5
32.4775 32.1353 202 3 12 5
32.8055 32.1353 202 3 12 5
33.1336 32.1353 202 3 12 5
33.4616 32.1353 202 3 12 5
33.7897 32.1353 202 3 12 5
34.1177 32.1353 202 2 9 3
34.4458 32.1353 202 4 11 5
34.7739 32.1353 202 4 11 5
35.1019 32.1353 202 4 11 5
35.43 32.1353 202 3 12 5
35.758 32.1353 202 3 12 5
36.0861 32.1353 202 3 12 5
36.2339 31.9762 201 3 12 5
36.5603 31.9762 201 3 12 5
36.8867 31.9762 201 3 12 5
37.2132 31.9762 201 3 12 5
37.5396 31.9762 201 3 12 5
37.866 31.9762 201 3 12 5
38.1924 31.9762 201 2 11 4
38.5189 31.9762 201 3 12 5
38.8453 31.9762 201 3 12 5
39.1717 31.9762 201 3 12 5
39.4982 31.9762 201 2 11 4
39.8246 31.9762 201 1 10 3
39.9513 31.8171 200 2 11 4
40.2761 31.8171 200 2 11 4
40.6009 31.8171 200 1 10 3
40.9257 31.8171 200 3 12 5
41.2505 31.8171 200 2 11 4
41.5753 31.8171 200 2 11 4
41.9001 31.8171 200 3 12 5
42.2249 31.8171 200 1 10 3
42.5497 31.8171 200 2 11 4
42.8745 31.8171 200 2 11 4
43.1994 31.8171 200 1 10 3
43.5242 31.8171 200 1 10 3
43.849 31.8171 200 2 11 4
44.1738 31.8171 200 2 11 4
44.2761 31.6581 199 3 12 5
44.5993 31.6581 199 3 12 5
44.9225 31.6581 199 3 12 5
45.2456 31.6581 199 3 12 5
45.5688 31.6581 199 3 12 5
45.892 31.6581 199 3 12 5
46.2152 31.6581 199 3 12 5
46.5384 31.6581 199 3 12 5
46.8616 31.6581 199 3 12 5
46.9476 31.499 198 3 12 5
47.2692 31.499 198 3 12 5
47.5907 31.499 198 3 12 5
47.9123 31.499 198 3 12 5
48.2339 31.499 198 3 12 5
48.5554 31.499 198 4 13 6
48.877 31.499 198 4 13 6
49.1985 31.499 198 4 13 6
49.5201 31.499 198 3 12 5
49.8417 31.499 198 3 12 5
49.9099 31.3399 197 4 13 6
50.2298 31.3399 197 4 13 6
50.5497 31.3399 197 3 12 5
50.8697 31.3399 197 3 12 5
50.9298 31.1808 196 3 12 5
49.9407 30.3854 191 4 13 6
47.0938 28.4763 179 4 13 6
46.0609 27.6809 174 4 13 6
46.0771 27.5218 173 4 13 6
46.0901 27.3627 172 3 12 5
46.3695 27.3627 172 4 13 6
46.6488 27.3627 172 4 13 6
46.9281 27.3627 172 4 13 6
47.2075 27.3627 172 4 13 6
47.4868 27.3627 172 4 13 6
47.7661 27.3627 172 5 14 7
48.0455 27.3627 172 5 14 7
48.0438 27.2037 171 4 13 6
48.3216 27.2037 171 4 13 6
48.5993 27.2037 171 5 14 7
48.877 27.2037 171 4 13 6
49.1547 27.2037 171 4 13 6
49.4324 27.2037 171 3 14 6
49.7101 27.2037 171 4 15 7
49.9878 27.2037 171 4 15 8
49.9716 27.0446 170 4 15 7
50.2477 27.0446 170 3 15 7
50.5238 27.0446 170 4 16 8
50.7998 27.0446 170 4 16 8
51.0759 27.0446 170 5 17 9
51.352 27.0446 170 5 17 9
51.6281 27.0446 170 6 18 10
51.9042 27.0446 170 8 20 12
51.8733 26.8855 169 9 21 13
52.1478 26.8855 169 10 20 12
51.8019 26.5673 167 30 40 32
7.89281 26.0349 162 66 84 62
8.20625 26.1956 163 10 28 5
8.67885 26.8384 167 17 27 15
9.05725 27.1598 169 14 24 12
9.38693 27.3205 170 11 23 13
9.66301 27.3205 170 10 22 12
9.99756 27.4813 171 10 22 12
10.2753 27.4813 171 11 23 13
10.553 27.4813 171 10 22 12
10.894 27.642 172 10 22 12
11.1734 27.642 172 10 22 12
11.4527 27.642 172 9 21 11
11.8002 27.8027 173 8 20 10
12.0812 27.8027 173 6 18 8
12.3622 27.8027 173 10 22 14
12.6431 27.8027 173 10 22 14
12.9241 27.8027 173 13 25 17
13.205 27.8027 173 12 24 16
13.486 27.8027 173 9 21 13
13.767 27.8027 173 5 17 9
14.0479 27.8027 173 4 16 8
14.3289 27.8027 173 3 15 7
14.6098 27.8027 173 4 13 6
14.8908 27.8027 173 4 13 6
15.1717 27.8027 173 4 13 6
15.4527 27.8027 173 4 13 6
15.7337 27.8027 173 4 13 6
16.0146 27.8027 173 4 13 6
16.2956 27.8027 173 4 13 6
16.5765 27.8027 173 4 13 6
16.8575 27.8027 173 3 12 5
17.1384 27.8027 173 3 12 5
17.4194 27.8027 173 3 12 5
17.7004 27.8027 173 3 12 5
18.0853 27.9634 174 1 10 3
18.3678 27.9634 174 1 10 3
18.6504 27.9634 174 1 10 3
18.933 27.9634 174 1 10 3
19.2156 27.9634 174 1 10 3
19.7223 28.2848 176 1 10 3
20.8039 29.4098 183 3 12 5
22.1389 30.8561 192 7 15 8
23.2692 31.9811 199 8 20 10
23.7109 32.1418 200 10 22 12
24.1559 32.3025 201 11 23 13
24.4823 32.3025 201 10 22 12
24.9322 32.4632 202 8 21 10
25.3853 32.6239 203 6 18 8
25.715 32.6239 203 5 17 8
26.0447 32.6239 203 4 16 8
26.3743 32.6239 203 3 15 7
26.704 32.6239 203 2 14 6
27.0337 32.6239 203 4 13 6
27.3634 32.6239 203 4 13 6
27.6931 32.6239 203 3 12 5
28.0227 32.6239 203 4 13 6
28.3524 32.6239 203 4 13 6
28.6821 32.6239 203 4 13 6
29.0118 32.6239 203 1 10 3
29.3415 32.6239 203 3 12 5
29.6711 32.6239 203 4 13 6
30.0008 32.6239 203 4 13 6
30.3305 32.6239 203 4 13 6
30.6602 32.6239 203 1 10 3
30.9898 32.6239 203 1 10 3
31.3195 32.6239 203 3 12 5
31.6492 32.6239 203 4 11 5
31.9789 32.6239 203 4 11 5
32.3086 32.6239 203 3 12 5
32.4775 32.4632 202 3 12 5
32.8055 32.4632 202 3 12 5
33.1336 32.4632 202 3 12 5
33.4616 32.4632 202 3 12 5
33.7897 32.4632 202 3 12 5
34.1177 32.4632 202 2 9 3
34.4458 32.4632 202 4 11 5
34.7739 32.4632 202 4 11 5
35.1019 32.4632 202 4 11 5
35.43 32.4632 202 3 12 5
35.758 32.4632 202 3 12 5
36.0861 32.4632 202 3 12 5
36.2339 32.3025 201 3 12 5
36.5603 32.3025 201 3 12 5
36.8867 32.3025 201 3 12 5
37.2132 32.3025 201 3 12 5
37.5396 32.3025 201 3 12 5
37.866 32.3025 201 3 12 5
38.1924 32.3025 201 3 12 5
38.5189 32.3025 201 4 13 6
38.8453 32.3025 201 3 12 5
39.1717 32.3025 201 3 12 5
39.4982 32.3025 201 1 10 3
39.8246 32.3025 201 1 10 3
40.151 32.3025 201 3 12 5
40.2761 32.1418 200 1 10 3
40.6009 32.1418 200 1 10 3
40.9257 32.1418 200 3 12 5
41.2505 32.1418 200 1 10 3
41.5753 32.1418 200 1 10 3
41.9001 32.1418 200 3 12 5
42.2249 32.1418 200 1 10 3
42.5497 32.1418 200 1 10 3
42.8745 32.1418 200 3 12 5
43.1994 32.1418 200 1 10 3
43.5242 32.1418 200 1 10 3
43.849 32.1418 200 1 10 3
44.1738 32.1418 200 1 10 3
44.2761 31.9811 199 3 12 5
44.5993 31.9811 199 3 12 5
44.9225 31.9811 199 3 12 5
45.2456 31.9811 199 3 12 5
45.5688 31.9811 199 3 12 5
45.892 31.9811 199 3 12 5
46.2152 31.9811 199 3 12 5
46.5384 31.9811 199 3 12 5
46.8616 31.9811 199 3 12 5
46.9476 31.8204 198 3 12 5
47.2692 31.8204 198 3 12 5
47.5907 31.8204 198 3 12 5
47.9123 31.8204 198 3 12 5
48.2339 31.8204 198 4 13 6
48.5554 31.8204 198 3 12 5
48.877 31.8204 198 3 12 5
49.1985 31.8204 198 3 12 5
49.5201 31.8204 198 3 12 5
49.8417 31.8204 198 3 12 5
49.9099 31.6597 197 5 14 7
50.2298 31.6597 197 4 13 6
50.5497 31.6597 197 4 13 6
50.8697 31.6597 197 3 12 5
50.9298 31.499 196 3 12 5
50.7251 31.1776 194 4 13 6
48.1462 29.4098 183 3 12 5
46.3256 28.1241 175 4 13 6
46.0771 27.8027 173 4 13 6
46.3581 27.8027 173 4 13 6
46.3695 27.642 172 4 13 6
46.6488 27.642 172 5 14 7
46.9281 27.642 172 4 13 6
47.2075 27.642 172 4 13 6
47.4868 27.642 172 4 13 6
47.7661 27.642 172 4 13 6
48.0455 27.642 172 5 14 7
48.0438 27.4813 171 4 13 6
48.3216 27.4813 171 4 13 6
48.5993 27.4813 171 4 13 6
48.877 27.4813 171 4 13 6
49.1547 27.4813 171 4 13 6
49.4324 27.4813 171 4 13 6
49.7101 27.4813 171 5 14 7
49.9878 27.4813 171 5 14 7
49.9716 27.3205 170 5 14 7
50.2477 27.3205 170 3 15 7
50.5238 27.3205 170 3 15 7
50.7998 27.3205 170 4 16 8
51.0759 27.3205 170 4 16 8
51.352 27.3205 170 5 17 9
51.6281 27.3205 170 5 17 9
51.9042 27.3205 170 6 18 10
51.8733 27.1598 169 8 20 12
52.1478 27.1598 169 12 21 12
52.4222 27.1598 169 12 21 12
51.7613 26.6777 166 69 84 57
7.89281 26.2978 162 63 81 60
8.20625 26.4602 163 28 46 25
8.67885 27.1095 167 15 28 15
9.05725 27.4342 169 13 26 13
9.38693 27.5965 170 13 22 13
9.71985 27.7588 171 13 22 13
9.99756 27.7588 171 10 22 12
10.2753 27.7588 171 10 22 12
10.6147 27.9212 172 9 21 11
10.894 27.9212 172 8 20 10
11.1734 27.9212 172 8 20 12
11.5193 28.0835 173 6 18 10
11.8002 28.0835 173 6 18 10
12.0812 28.0835 173 5 17 9
12.3622 28.0835 173 9 21 13
12.6431 28.0835 173 9 21 13
12.9988 28.2458 174 13 22 15
13.2814 28.2458 174 11 21 13
13.5639 28.2458 174 10 19 10
13.8465 28.2458 174 6 15 6
14.0479 28.0835 173 6 15 6
14.3289 28.0835 173 4 13 4
14.6098 28.0835 173 4 13 4
14.8908 28.0835 173 4 13 4
15.1717 28.0835 173 4 13 6
15.4527 28.0835 173 3 12 5
15.7337 28.0835 173 3 12 5
16.0146 28.0835 173 4 13 6
16.2956 28.0835 173 4 13 6
16.5765 28.0835 173 3 12 5
16.8575 28.0835 173 3 12 5
17.1384 28.0835 173 3 12 5
17.4194 28.0835 173 3 12 5
17.7004 28.0835 173 3 12 5
18.0853 28.2458 174 3 12 5
18.3678 28.2458 174 1 10 3
18.6504 28.2458 174 1 10 3
18.933 28.2458 174 1 10 3
19.2156 28.2458 174 1 10 3
19.6102 28.4082 175 1 10 3
20.3492 29.0575 179 2 9 3
21.6776 30.5185 188 4 12 5
23.1523 32.1418 198 6 18 8
23.7109 32.4665 200 10 22 12
24.1559 32.6288 201 10 24 13
24.6041 32.7911 202 7 21 10
24.9322 32.7911 202 5 18 7
25.3853 32.9535 203 3 17 6
25.715 32.9535 203 3 15 5
26.0447 32.9535 203 3 15 5
26.3743 32.9535 203 5 14 7
26.704 32.9535 203 4 13 6
27.0337 32.9535 203 4 13 6
27.3634 32.9535 203 3 12 5
27.6931 32.9535 203 3 12 5
28.0227 32.9535 203 3 12 5
28.3524 32.9535 203 3 12 5
28.6821 32.9535 203 4 13 6
29.0118 32.9535 203 4 11 5
29.3415 32.9535 203 4 11 5
29.6711 32.9535 203 4 13 6
30.0008 32.9535 203 4 13 6
30.3305 32.9535 203 4 13 6
30.6602 32.9535 203 3 12 5
30.9898 32.9535 203 3 12 5
31.3195 32.9535 203 3 12 5
31.6492 32.9535 203 3 12 5
31.9789 32.9535 203 3 12 5
32.3086 32.9535 203 3 12 5
32.4775 32.7911 202 3 12 5
32.8055 32.7911 202 3 12 5
33.1336 32.7911 202 3 12 5
33.4616 32.7911 202 3 12 5
33.7897 32.7911 202 3 12 5
34.1177 32.7911 202 1 10 3
34.4458 32.7911 202 3 12 5
34.7739 32.7911 202 4 11 5
35.1019 32.7911 202 4 11 5
35.43 32.7911 202 4 11 5
35.758 32.7911 202 4 11 5
36.0861 32.7911 202 3 12 5
36.2339 32.6288 201 3 12 5
36.5603 32.6288 201 3 12 5
36.8867 32.6288 201 3 12 5
37.2132 32.6288 201 3 12 5
37.5396 32.6288 201 3 12 5
37.866 32.6288 201 3 12 5
38.1924 32.6288 201 3 12 5
38.5189 32.6288 201 3 12 5
38.8453 32.6288 201 1 10 3
39.1717 32.6288 201 1 10 3
39.4982 32.6288 201 1 10 3
39.8246 32.6288 201 1 10 3
40.151 32.6288 201 3 12 5
40.2761 32.4665 200 1 10 3
40.6009 32.4665 200 1 10 3
40.9257 32.4665 200 3 12 5
41.2505 32.4665 200 1 10 3
41.5753 32.4665 200 1 10 3
41.9001 32.4665 200 1 10 3
42.2249 32.4665 200 1 10 3
42.5497 32.4665 200 3 12 5
42.8745 32.4665 200 1 10 3
43.1994 32.4665 200 1 10 3
43.5242 32.4665 200 3 12 5
43.849 32.4665 200 3 12 5
44.1738 32.4665 200 1 10 3
44.2761 32.3041 199 3 12 5
44.5993 32.3041 199 3 12 5
44.9225 32.3041 199 3 12 5
45.2456 32.3041 199 3 12 5
45.5688 32.3041 199 4 13 6
45.892 32.3041 199 4 13 6
46.2152 32.3041 199 4 13 6
46.5384 32.3041 199 3 12 5
46.8616 32.3041 199 3 12 5
46.9476 32.1418 198 3 12 5
47.2692 32.1418 198 3 12 5
47.5907 32.1418 198 3 12 5
47.9123 32.1418 198 3 12 5
48.2339 32.1418 198 4 13 6
48.5554 32.1418 198 3 12 5
48.877 32.1418 198 3 12 5
49.1985 32.1418 198 3 12 5
49.5201 32.1418 198 3 12 5
49.5899 31.9795 197 3 12 5
49.9099 31.9795 197 3 12 5
50.2298 31.9795 197 4 13 6
50.5497 31.9795 197 3 12 5
50.8697 31.9795 197 4 13 6
51.1896 31.9795 197 3 12 5
50.9866 31.6548 195 3 12 5
49.9878 30.8432 190 3 12 5
47.3845 29.0575 179 4 13 6
46.3435 28.2458 174 4 13 6
46.3581 28.0835 173 4 13 6
46.6391 28.0835 173 3 12 3
46.6488 27.9212 172 4 13 4
46.9281 27.9212 172 4 13 4
47.2075 27.9212 172 4 13 4
47.4868 27.9212 172 4 13 6
47.7661 27.9212 172 4 13 6
48.0455 27.9212 172 4 13 6
48.0438 27.7588 171 4 13 6
48.3216 27.7588 171 4 13 6
48.5993 27.7588 171 4 13 6
48.877 27.7588 171 4 13 6
49.1547 27.7588 171 5 14 7
49.4324 27.7588 171 4 13 6
49.7101 27.7588 171 6 15 8
49.6955 27.5965 170 6 15 8
49.9716 27.5965 170 6 15 8
50.2477 27.5965 170 5 14 7
50.5238 27.5965 170 4 13 6
50.7998 27.5965 170 2 14 6
51.0759 27.5965 170 3 15 7
51.352 27.5965 170 3 15 7
51.6281 27.5965 170 3 15 7
51.9042 27.5965 170 5 17 9
51.8733 27.4342 169 8 20 12
52.1478 27.4342 169 10 22 14
52.4222 27.4342 169 11 23 15
52.0731 27.1095 167 37 51 29
7.89281 26.5608 162 56 74 52
8.20625 26.7248 163 38 56 34
8.67885 27.3806 167 19 33 18
9.05725 27.7085 169 12 27 12
9.38693 27.8725 170 12 23 14
9.71985 28.0364 171 12 23 14
9.99756 28.0364 171 10 22 12
10.3354 28.2004 172 9 21 11
10.6147 28.2004 172 8 20 10
10.894 28.2004 172 6 18 8
11.2383 28.3643 173 6 18 10
11.5193 28.3643 173 5 17 9
11.8002 28.3643 173 5 17 9
12.0812 28.3643 173 4 16 8
12.3622 28.3643 173 8 18 10
12.7162 28.5283 174 10 20 11
12.9988 28.5283 174 10 19 11
13.2814 28.5283 174 8 18 9
13.5639 28.5283 174 9 16 8
13.8465 28.5283 174 7 14 6
14.1291 28.5283 174 6 14 5
14.4117 28.5283 174 5 12 4
14.6098 28.3643 173 4 13 4
14.8908 28.3643 173 3 12 3
15.1717 28.3643 173 3 12 5
15.4527 28.3643 173 4 13 6
15.7337 28.3643 173 4 13 6
16.0146 28.3643 173 3 12 5
16.2956 28.3643 173 3 12 5
16.5765 28.3643 173 3 12 5
16.8575 28.3643 173 3 12 5
17.1384 28.3643 173 2 11 4
17.4194 28.3643 173 3 12 5
17.7004 28.3643 173 3 12 5
18.0853 28.5283 174 3 12 5
18.3678 28.5283 174 1 10 3
18.6504 28.5283 174 1 10 3
18.933 28.5283 174 1 10 3
19.2156 28.5283 174 1 10 3
19.6102 28.6923 175 1 10 3
20.1218 29.0202 177 2 9 3
21.3317 30.3318 185 3 10 4
23.0353 32.2993 197 5 15 7
23.7109 32.7911 200 8 18 10
24.1559 32.9551 201 8 20 10
24.6041 33.1191 202 6 19 9
25.0556 33.283 203 4 17 6
25.3853 33.283 203 3 16 5
25.715 33.283 203 2 14 4
26.0447 33.283 203 3 15 5
26.3743 33.283 203 5 14 7
26.704 33.283 203 3 12 5
27.0337 33.283 203 4 13 6
27.3634 33.283 203 3 12 5
27.6931 33.283 203 3 12 5
28.0227 33.283 203 3 12 5
28.3524 33.283 203 3 12 5
28.6821 33.283 203 2 11 4
29.0118 33.283 203 2 10 4
29.3415 33.283 203 3 12 5
29.6711 33.283 203 4 13 6
30.0008 33.283 203 4 13 6
30.3305 33.283 203 4 13 6
30.6602 33.283 203 3 12 5
30.9898 33.283 203 3 12 5
31.3195 33.283 203 3 12 5
31.6492 33.283 203 3 12 5
31.9789 33.283 203 4 13 6
32.3086 33.283 203 3 12 5
32.4775 33.1191 202 3 12 5
32.8055 33.1191 202 3 12 5
33.1336 33.1191 202 3 12 5
33.4616 33.1191 202 3 12 5
33.7897 33.1191 202 2 11 4
34.1177 33.1191 202 1 10 3
34.4458 33.1191 202 3 12 5
34.7739 33.1191 202 4 11 5
35.1019 33.1191 202 4 11 5
35.43 33.1191 202 4 11 5
35.758 33.1191 202 4 11 5
36.0861 33.1191 202 3 12 5
36.2339 32.9551 201 3 12 5
36.5603 32.9551 201 3 12 5
36.8867 32.9551 201 3 12 5
37.2132 32.9551 201 3 12 5
37.5396 32.9551 201 4 13 6
37.866 32.9551 201 3 12 5
38.1924 32.9551 201 3 12 5
38.5189 32.9551 201 3 12 5
38.8453 32.9551 201 1 10 3
39.1717 32.9551 201 1 10 3
39.4982 32.9551 201 1 10 3
39.8246 32.9551 201 2 9 3
40.151 32.9551 201 4 11 5
40.2761 32.7911 200 3 11 4
40.6009 32.7911 200 2 9 3
40.9257 32.7911 200 4 11 5
41.2505 32.7911 200 3 11 4
41.5753 32.7911 200 1 10 3
41.9001 32.7911 200 1 10 3
42.2249 32.7911 200 1 10 3
42.5497 32.7911 200 3 12 5
42.8745 32.7911 200 1 10 3
43.1994 32.7911 200 2 11 4
43.5242 32.7911 200 3 12 5
43.849 32.7911 200 3 12 5
44.1738 32.7911 200 2 11 4
44.2761 32.6272 199 3 12 5
44.5993 32.6272 199 2 11 4
44.9225 32.6272 199 3 12 5
45.2456 32.6272 199 3 12 5
45.5688 32.6272 199 3 12 5
45.892 32.6272 199 3 12 5
46.2152 32.6272 199 3 12 5
46.5384 32.6272 199 3 12 5
46.8616 32.6272 199 3 12 5
46.9476 32.4632 198 3 12 5
47.2692 32.4632 198 3 12 5
47.5907 32.4632 198 3 12 5
47.9123 32.4632 198 3 12 5
48.2339 32.4632 198 3 12 5
48.5554 32.4632 198 3 12 5
48.877 32.4632 198 3 12 5
49.1985 32.4632 198 4 13 6
49.5201 32.4632 198 4 13 6
49.5899 32.2993 197 4 13 6
49.9099 32.2993 197 3 12 5
50.2298 32.2993 197 3 12 5
50.5497 32.2993 197 4 13 6
50.8697 32.2993 197 4 13 6
51.1896 32.2993 197 3 12 5
51.2481 32.1353 196 2 11 4
50.7771 31.6435 193 4 13 6
48.4434 30.0039 183 4 13 6
46.8762 28.8562 176 3 12 5
46.3581 28.3643 173 4 13 6
46.6391 28.3643 173 4 13 4
46.6488 28.2004 172 4 13 4
46.9281 28.2004 172 4 13 4
47.2075 28.2004 172 4 13 4
47.4868 28.2004 172 4 13 6
47.7661 28.2004 172 4 13 6
48.0455 28.2004 172 4 13 6
48.0438 28.0364 171 4 13 6
48.3216 28.0364 171 3 12 5
48.5993 28.0364 171 4 13 6
48.877 28.0364 171 4 13 6
49.1547 28.0364 171 6 15 8
49.4324 28.0364 171 6 15 8
49.7101 28.0364 171 9 17 11
49.6955 27.8725 170 7 16 9
49.9716 27.8725 170 5 14 7
50.2477 27.8725 170 2 12 4
50.5238 27.8725 170 2 11 4
50.7998 27.8725 170 1 12 4
51.0759 27.8725 170 3 13 6
51.352 27.8725 170 2 14 6
51.6281 27.8725 170 3 15 7
51.9042 27.8725 170 4 16 8
51.8733 27.7085 169 7 19 11
52.1478 27.7085 169 9 21 13
52.4222 27.7085 169 10 22 14
52.3849 27.5446 168 16 29 10
51.7174 27.0527 165 76 89 71
7.89281 26.8238 162 52 69 45
8.15591 26.8238 162 43 61 37
8.62688 27.4861 166 23 38 22
9.05725 27.9829 169 13 28 12
9.38693 28.1484 170 12 24 13
9.71985 28.314 171 11 24 13
9.99756 28.314 171 9 21 11
10.3354 28.4796 172 8 20 10
10.6147 28.4796 172 7 19 10
10.894 28.4796 172 4 16 7
11.2383 28.6452 173 4 16 8
11.5193 28.6452 173 4 16 8
11.8002 28.6452 173 5 16 9
12.0812 28.6452 173 5 16 8
12.4336 28.8108 174 9 18 9
12.7162 28.8108 174 9 18 9
12.9988 28.8108 174 8 16 8
13.2814 28.8108 174 7 15 7
13.5639 28.8108 174 8 15 7
13.8465 28.8108 174 7 14 6
14.1291 28.8108 174 6 13 5
14.4117 28.8108 174 5 12 4
14.6943 28.8108 174 4 13 4
14.8908 28.6452 173 3 12 3
15.1717 28.6452 173 3 12 4
15.4527 28.6452 173 4 13 5
15.7337 28.6452 173 4 13 6
16.0146 28.6452 173 3 12 5
16.2956 28.6452 173 2 11 4
16.5765 28.6452 173 2 11 4
16.8575 28.6452 173 2 11 4
17.1384 28.6452 173 1 10 3
17.4194 28.6452 173 2 11 4
17.7004 28.6452 173 2 11 4
18.0853 28.8108 174 2 11 4
18.3678 28.8108 174 1 10 3
18.6504 28.8108 174 1 10 3
18.933 28.8108 174 1 10 3
19.2156 28.8108 174 1 9 3
19.6102 28.9763 175 1 10 3
20.0081 29.1419 176 2 9 3
20.8705 29.9698 181 2 9 3
22.3337 31.6256 191 3 11 5
23.7109 33.1158 200 6 15 8
24.1559 33.2814 201 6 17 7
24.6041 33.447 202 6 17 7
25.0556 33.6125 203 4 15 6
25.3853 33.6125 203 4 15 5
25.715 33.6125 203 3 14 4
26.0447 33.6125 203 3 14 5
26.3743 33.6125 203 5 14 6
26.704 33.6125 203 3 12 4
27.0337 33.6125 203 4 13 6
27.3634 33.6125 203 3 12 5
27.6931 33.6125 203 3 12 5
28.0227 33.6125 203 3 12 5
28.3524 33.6125 203 3 12 5
28.6821 33.6125 203 1 10 3
29.0118 33.6125 203 2 11 4
29.3415 33.6125 203 3 12 5
29.6711 33.6125 203 4 13 6
30.0008 33.6125 203 4 13 6
30.3305 33.6125 203 4 13 6
30.6602 33.6125 203 3 12 5
30.9898 33.6125 203 3 12 5
31.3195 33.6125 203 3 12 5
31.6492 33.6125 203 3 12 5
31.9789 33.6125 203 4 13 6
32.1494 33.447 202 3 12 5
32.4775 33.447 202 3 12 5
32.8055 33.447 202 3 12 5
33.1336 33.447 202 3 12 5
33.4616 33.447 202 3 12 5
33.7897 33.447 202 1 10 3
34.1177 33.447 202 2 11 4
34.4458 33.447 202 3 12 5
34.7739 33.447 202 4 11 5
35.1019 33.447 202 4 11 5
35.43 33.447 202 3 10 4
35.758 33.447 202 4 11 5
36.0861 33.447 202 3 12 5
36.2339 33.2814 201 3 12 5
36.5603 33.2814 201 3 12 5
36.8867 33.2814 201 2 11 4
37.2132 33.2814 201 3 12 5
37.5396 33.2814 201 4 13 6
37.866 33.2814 201 3 12 5
38.1924 33.2814 201 3 12 5
38.5189 33.2814 201 2 11 4
38.8453 33.2814 201 2 11 4
39.1717 33.2814 201 1 10 3
39.4982 33.2814 201 1 10 3
39.8246 33.2814 201 2 9 3
40.151 33.2814 201 4 11 5
40.2761 33.1158 200 3 10 4
40.6009 33.1158 200 2 9 3
40.9257 33.1158 200 3 10 4
41.2505 33.1158 200 3 10 4
41.5753 33.1158 200 1 10 3
41.9001 33.1158 200 1 10 3
42.2249 33.1158 200 1 10 3
42.5497 33.1158 200 3 11 4
42.8745 33.1158 200 2 11 4
43.1994 33.1158 200 3 12 5
43.5242 33.1158 200 3 12 5
43.849 33.1158 200 3 12 5
44.1738 33.1158 200 3 12 5
44.2761 32.9502 199 3 12 5
44.5993 32.9502 199 2 11 4
44.9225 32.9502 199 3 12 5
45.2456 32.9502 199 3 12 5
45.5688 32.9502 199 3 12 5
45.892 32.9502 199 3 12 5
46.2152 32.9502 199 3 12 5
46.5384 32.9502 199 3 12 5
46.8616 32.9502 199 3 12 5
46.9476 32.7846 198 3 12 5
47.2692 32.7846 198 3 12 5
47.5907 32.7846 198 3 12 5
47.9123 32.7846 198 3 12 5
48.2339 32.7846 198 3 12 5
48.5554 32.7846 198 3 12 5
48.877 32.7846 198 3 12 5
49.1985 32.7846 198 4 13 6
49.27 32.6191 197 4 13 6
49.5899 32.6191 197 4 13 6
49.9099 32.6191 197 3 12 5
50.2298 32.6191 197 3 12 5
50.5497 32.6191 197 4 13 6
50.8697 32.6191 197 4 13 6
51.1896 32.6191 197 3 12 5
51.2481 32.4535 196 2 11 4
51.3033 32.2879 195 4 13 6
50.0317 31.2944 189 4 13 6
47.9415 29.8042 180 3 12 5
46.894 28.9763 175 4 13 6
46.6391 28.6452 173 4 13 5
46.92 28.6452 173 4 13 5
46.9281 28.4796 172 4 13 4
47.2075 28.4796 172 4 13 4
47.4868 28.4796 172 4 13 5
47.7661 28.4796 172 4 13 5
48.0455 28.4796 172 4 13 6
48.0438 28.314 171 4 13 6
48.3216 28.314 171 3 12 5
48.5993 28.314 171 4 13 6
48.877 28.314 171 4 13 6
49.1547 28.314 171 6 15 8
49.4324 28.314 171 7 17 9
49.4194 28.1484 170 9 19 11
49.6955 28.1484 170 7 17 9
49.9716 28.1484 170 3 14 6
50.2477 28.1484 170 1 10 3
50.5238 28.1484 170 1 10 3
50.7998 28.1484 170 1 10 3
51.0759 28.1484 170 2 11 4
51.352 28.1484 170 2 13 5
51.6281 28.1484 170 3 14 7
51.5989 27.9829 169 4 15 7
51.8733 27.9829 169 6 17 9
52.1478 27.9829 169 8 19 10
52.4222 27.9829 169 10 21 13
52.6967 27.9829 169 7 20 5
52.3443 27.6517 167 51 64 49
7.89281 27.0868 162 51 68 42
8.15591 27.0868 162 43 60 34
8.57491 27.5884 165 27 42 26
9.00365 28.09 168 14 29 12
9.38693 28.4244 170 12 25 12
9.71985 28.5916 171 10 23 10
9.99756 28.5916 171 8 20 10
10.3354 28.7588 172 6 18 8
10.6147 28.7588 172 5 17 9
10.9574 28.926 173 4 16 8
11.2383 28.926 173 3 15 7
11.5193 28.926 173 3 15 7
11.8002 28.926 173 6 15 8
12.151 29.0932 174 7 16 9
12.4336 29.0932 174 10 19 10
12.7162 29.0932 174 8 17 8
12.9988 29.0932 174 8 15 7
13.2814 29.0932 174 7 14 6
13.5639 29.0932 174 8 15 7
13.8465 29.0932 174 7 14 6
14.1291 29.0932 174 6 13 5
14.4117 29.0932 174 5 12 4
14.6943 29.0932 174 4 13 4
14.9769 29.0932 174 3 12 3
15.2594 29.0932 174 3 12 3
15.4527 28.926 173 4 13 4
15.7337 28.926 173 3 12 5
16.0146 28.926 173 3 12 5
16.2956 28.926 173 1 10 3
16.5765 28.926 173 1 10 3
16.8575 28.926 173 1 10 3
17.1384 28.926 173 1 10 3
17.4194 28.926 173 1 10 3
17.8027 29.0932 174 1 10 3
18.0853 29.0932 174 1 10 3
18.3678 29.0932 174 1 10 3
18.6504 29.0932 174 1 10 3
18.933 29.0932 174 1 10 3
19.2156 29.0932 174 1 8 2
19.6102 29.2604 175 2 9 3
19.8944 29.2604 175 1 8 2
20.5246 29.762 178 2 9 3
21.6322 30.9324 185 2 9 3
23.4738 33.1061 198 5 12 6
24.1559 33.6077 201 6 14 6
24.6041 33.7749 202 5 14 5
25.0556 33.9421 203 5 14 5
25.3853 33.9421 203 5 14 5
25.715 33.9421 203 4 13 4
26.0447 33.9421 203 4 13 4
26.3743 33.9421 203 4 13 4
26.704 33.9421 203 3 12 3
27.0337 33.9421 203 4 13 6
27.3634 33.9421 203 3 12 5
27.6931 33.9421 203 3 12 5
28.0227 33.9421 203 3 12 5
28.3524 33.9421 203 3 12 5
28.6821 33.9421 203 1 10 3
29.0118 33.9421 203 3 12 5
29.3415 33.9421 203 4 13 6
29.6711 33.9421 203 3 12 5
30.0008 33.9421 203 3 12 5
30.3305 33.9421 203 3 12 5
30.6602 33.9421 203 3 12 5
30.9898 33.9421 203 3 12 5
31.3195 33.9421 203 3 12 5
31.6492 33.9421 203 3 12 5
31.9789 33.9421 203 4 13 6
32.1494 33.7749 202 4 11 5
32.4775 33.7749 202 4 11 5
32.8055 33.7749 202 3 12 5
33.1336 33.7749 202 4 12 6
33.4616 33.7749 202 3 12 5
33.7897 33.7749 202 1 10 3
34.1177 33.7749 202 3 12 5
34.4458 33.7749 202 3 12 5
34.7739 33.7749 202 4 11 5
35.1019 33.7749 202 4 11 5
35.43 33.7749 202 2 9 3
35.758 33.7749 202 4 11 5
35.9074 33.6077 201 3 12 5
36.2339 33.6077 201 3 12 5
36.5603 33.6077 201 3 12 5
36.8867 33.6077 201 1 10 3
37.2132 33.6077 201 3 12 5
37.5396 33.6077 201 4 13 6
37.866 33.6077 201 3 12 5
38.1924 33.6077 201 3 12 5
38.5189 33.6077 201 1 10 3
38.8453 33.6077 201 3 12 5
39.1717 33.6077 201 1 10 3
39.4982 33.6077 201 1 10 3
39.8246 33.6077 201 1 10 3
40.151 33.6077 201 3 12 5
40.2761 33.4405 200 2 9 3
40.6009 33.4405 200 2 9 3
40.9257 33.4405 200 2 9 3
41.2505 33.4405 200 2 9 3
41.5753 33.4405 200 2 9 3
41.9001 33.4405 200 2 9 3
42.2249 33.4405 200 2 9 3
42.5497 33.4405 200 2 9 3
42.8745 33.4405 200 3 12 5
43.1994 33.4405 200 3 12 5
43.5242 33.4405 200 4 13 6
43.849 33.4405 200 3 12 5
44.1738 33.4405 200 3 12 5
44.2761 33.2733 199 3 12 5
44.5993 33.2733 199 3 12 5
44.9225 33.2733 199 3 12 5
45.2456 33.2733 199 3 12 5
45.5688 33.2733 199 3 12 5
45.892 33.2733 199 3 12 5
46.2152 33.2733 199 3 12 5
46.5384 33.2733 199 3 12 5
46.6261 33.1061 198 3 12 5
46.9476 33.1061 198 3 12 5
47.2692 33.1061 198 3 12 5
47.5907 33.1061 198 3 12 5
47.9123 33.1061 198 3 12 5
48.2339 33.1061 198 3 12 5
48.5554 33.1061 198 3 12 5
48.877 33.1061 198 3 12 5
49.1985 33.1061 198 3 12 5
49.27 32.9389 197 4 13 6
49.5899 32.9389 197 5 14 7
49.9099 32.9389 197 4 13 6
50.2298 32.9389 197 3 12 5
50.5497 32.9389 197 4 13 6
50.8697 32.9389 197 4 13 6
51.1896 32.9389 197 4 13 6
51.2481 32.7717 196 3 12 5
51.5664 32.7717 196 4 13 6
51.0905 32.2701 193 4 13 6
49.2732 30.9324 185 3 12 5
47.43 29.5948 177 4 13 6
46.9086 29.0932 174 4 13 6
46.92 28.926 173 4 13 6
46.9281 28.7588 172 4 13 4
47.2075 28.7588 172 4 13 4
47.4868 28.7588 172 4 13 4
47.7661 28.7588 172 4 13 4
48.0455 28.7588 172 4 13 6
48.0438 28.5916 171 4 13 6
48.3216 28.5916 171 4 13 6
48.5993 28.5916 171 4 13 6
48.877 28.5916 171 5 14 7
49.1547 28.5916 171 6 15 8
49.1433 28.4244 170 6 18 10
49.4194 28.4244 170 6 18 10
49.6955 28.4244 170 4 16 8
49.9716 28.4244 170 1 13 5
50.2477 28.4244 170 1 10 3
50.5238 28.4244 170 0 9 2
50.7998 28.4244 170 0 9 2
51.0759 28.4244 170 0 9 2
51.0499 28.2572 169 1 10 3
51.3244 28.2572 169 4 13 6
51.5989 28.2572 169 4 13 6
51.8733 28.2572 169 6 15 8
52.1478 28.2572 169 7 16 7
52.4222 28.2572 169 11 20 11
52.6967 28.2572 169 9 22 9
52.6577 28.09 168 16 28 16
51.9854 27.5884 165 73 90 60
7.89281 27.3498 162 52 69 43
8.15591 27.3498 162 44 61 35
8.47097 27.5186 163 34 49 31
8.95006 28.1939 167 12 27 9
9.38693 28.7004 170 10 22 12
9.71985 28.8692 171 8 20 10
9.99756 28.8692 171 5 17 9
10.3354 29.038 172 4 16 8
10.6147 29.038 172 4 16 8
10.9574 29.2068 173 3 15 7
11.2383 29.2068 173 3 15 7
11.5193 29.2068 173 3 15 7
11.8002 29.2068 173 7 16 7
12.151 29.3757 174 10 19 10
12.4336 29.3757 174 10 19 10
12.7162 29.3757 174 7 16 7
12.9988 29.3757 174 8 15 7
13.2814 29.3757 174 7 14 6
13.5639 29.3757 174 6 13 5
13.8465 29.3757 174 7 14 6
14.1291 29.3757 174 5 12 4
14.4117 29.3757 174 5 12 4
14.6943 29.3757 174 5 12 4
14.9769 29.3757 174 4 11 3
15.2594 29.3757 174 3 12 3
15.542 29.3757 174 3 12 3
15.8246 29.3757 174 4 13 4
16.1072 29.3757 174 4 13 4
16.3898 29.3757 174 1 10 3
16.6724 29.3757 174 1 10 3
16.9549 29.3757 174 1 10 3
17.2375 29.3757 174 1 10 3
17.5201 29.3757 174 1 10 3
17.8027 29.3757 174 1 10 3
18.0853 29.3757 174 1 10 3
18.3678 29.3757 174 1 10 3
18.6504 29.3757 174 1 10 3
18.933 29.3757 174 1 10 3
19.2156 29.3757 174 1 10 3
19.4982 29.3757 174 1 10 3
19.8944 29.5445 175 1 8 2
20.294 29.7133 176 2 9 3
21.1644 30.5574 181 2 9 3
23.2367 33.0898 196 2 9 3
24.0357 33.7651 200 4 11 5
24.6041 34.1028 202 5 12 6
25.0556 34.2716 203 4 13 4
25.3853 34.2716 203 5 14 5
25.715 34.2716 203 4 13 4
26.0447 34.2716 203 4 13 4
26.3743 34.2716 203 5 12 4
26.704 34.2716 203 4 11 3
27.0337 34.2716 203 3 12 5
27.3634 34.2716 203 3 12 5
27.6931 34.2716 203 3 12 5
28.0227 34.2716 203 4 13 6
28.3524 34.2716 203 4 13 6
28.6821 34.2716 203 4 13 6
29.0118 34.2716 203 3 12 3
29.3415 34.2716 203 4 13 4
29.6711 34.2716 203 3 12 5
30.0008 34.2716 203 4 13 6
30.3305 34.2716 203 3 12 5
30.6602 34.2716 203 3 12 5
30.9898 34.2716 203 3 12 5
31.3195 34.2716 203 3 12 5
31.6492 34.2716 203 3 12 5
31.9789 34.2716 203 3 12 5
32.1494 34.1028 202 4 11 5
32.4775 34.1028 202 4 11 5
32.8055 34.1028 202 4 11 5
33.1336 34.1028 202 2 9 3
33.4616 34.1028 202 4 11 5
33.7897 34.1028 202 4 11 5
34.1177 34.1028 202 4 11 5
34.4458 34.1028 202 4 11 5
34.7739 34.1028 202 4 11 5
35.1019 34.1028 202 4 11 5
35.43 34.1028 202 2 9 3
35.758 34.1028 202 4 11 5
35.9074 33.934 201 3 12 5
36.2339 33.934 201 3 12 5
36.5603 33.934 201 3 12 5
36.8867 33.934 201 3 12 5
37.2132 33.934 201 1 10 3
37.5396 33.934 201 3 12 5
37.866 33.934 201 3 12 5
38.1924 33.934 201 3 12 5
38.5189 33.934 201 1 10 3
38.8453 33.934 201 1 10 3
39.1717 33.934 201 2 9 3
39.4982 33.934 201 2 9 3
39.8246 33.934 201 2 9 3
40.151 33.934 201 4 11 5
40.4775 33.934 201 4 11 5
40.6009 33.7651 200 4 11 5
40.9257 33.7651 200 4 11 5
41.2505 33.7651 200 4 11 5
41.5753 33.7651 200 4 11 5
41.9001 33.7651 200 2 9 3
42.2249 33.7651 200 2 9 3
42.5497 33.7651 200 2 9 3
42.8745 33.7651 200 1 10 3
43.1994 33.7651 200 3 12 5
43.5242 33.7651 200 3 12 5
43.849 33.7651 200 3 12 5
44.1738 33.7651 200 3 12 5
44.2761 33.5963 199 3 12 5
44.5993 33.5963 199 3 12 5
44.9225 33.5963 199 3 12 5
45.2456 33.5963 199 3 12 5
45.5688 33.5963 199 3 12 5
45.892 33.5963 199 3 12 5
46.2152 33.5963 199 3 12 5
46.5384 33.5963 199 3 12 5
46.6261 33.4275 198 3 12 5
46.9476 33.4275 198 3 12 5
47.2692 33.4275 198 3 12 5
47.5907 33.4275 198 3 12 5
47.9123 33.4275 198 3 12 5
48.2339 33.4275 198 3 12 5
48.5554 33.4275 198 3 12 5
48.877 33.4275 198 3 12 5
49.1985 33.4275 198 3 12 5
49.27 33.2587 197 3 12 5
49.5899 33.2587 197 4 13 6
49.9099 33.2587 197 4 13 6
50.2298 33.2587 197 3 12 5
50.5497 33.2587 197 3 12 5
50.8697 33.2587 197 3 12 5
51.1896 33.2587 197 5 14 7
51.5095 33.2587 197 3 12 5
51.5664 33.0898 196 3 12 5
51.62 32.921 195 4 13 6
50.3386 31.9081 189 3 12 5
48.7698 30.7263 182 4 13 6
47.4478 29.7133 176 4 13 6
46.92 29.2068 173 4 13 6
47.201 29.2068 173 4 13 4
47.2075 29.038 172 4 13 4
47.4868 29.038 172 3 12 3
47.7661 29.038 172 4 13 4
48.0455 29.038 172 4 13 4
48.0438 28.8692 171 4 13 4
48.3216 28.8692 171 4 13 6
48.5993 28.8692 171 4 13 6
48.877 28.8692 171 5 14 7
49.1547 28.8692 171 6 15 8
49.1433 28.7004 170 7 16 9
49.4194 28.7004 170 5 15 7
49.6955 28.7004 170 4 13 6
49.9716 28.7004 170 3 12 5
50.2477 28.7004 170 2 9 3
50.5238 28.7004 170 2 9 3
50.7998 28.7004 170 1 8 2
50.7755 28.5315 169 1 8 2
51.0499 28.5315 169 2 9 3
51.3244 28.5315 169 4 11 5
51.5989 28.5315 169 4 11 5
51.8733 28.5315 169 5 12 6
52.1478 28.5315 169 8 15 7
52.4222 28.5315 169 12 19 11
52.6967 28.5315 169 12 21 12
52.9712 28.5315 169 9 19 9
52.3004 28.0251 166 58 75 51
7.89281 27.6127 162 53 68 43
8.15591 27.6127 162 46 62 36
8.47097 27.7832 163 36 51 31
8.89647 28.2945 166 15 29 10
9.33171 28.8059 169 9 21 11
9.66301 28.9763 170 7 19 9
9.99756 29.1468 171 4 16 7
10.3354 29.3172 172 4 16 7
10.6147 29.3172 172 3 15 7
10.9574 29.4877 173 2 14 6
11.2383 29.4877 173 4 14 7
11.5193 29.4877 173 5 15 8
11.8002 29.4877 173 9 19 8
12.151 29.6581 174 10 20 9
12.4336 29.6581 174 9 17 7
12.7162 29.6581 174 8 16 6
12.9988 29.6581 174 7 15 5
13.2814 29.6581 174 7 15 5
13.5639 29.6581 174 6 14 4
13.8465 29.6581 174 6 14 4
14.1291 29.6581 174 6 13 3
14.4117 29.6581 174 5 13 3
14.6943 29.6581 174 5 12 4
14.9769 29.6581 174 5 12 4
15.2594 29.6581 174 2 11 2
15.542 29.6581 174 2 11 2
15.8246 29.6581 174 4 13 4
16.1072 29.6581 174 3 12 3
16.3898 29.6581 174 2 11 4
16.6724 29.6581 174 1 10 3
16.9549 29.6581 174 1 10 3
17.2375 29.6581 174 0 9 2
17.5201 29.6581 174 1 10 3
17.8027 29.6581 174 1 10 3
18.0853 29.6581 174 2 11 4
18.3678 29.6581 174 0 9 2
18.6504 29.6581 174 0 9 2
18.933 29.6581 174 1 10 3
19.2156 29.6581 174 1 10 3
19.4982 29.6581 174 1 10 3
19.8944 29.8286 175 2 9 3
20.294 29.999 176 1 8 2
20.8136 30.3399 178 1 8 2
22.1697 31.874 187 2 9 3
23.7954 33.7489 198 4 11 5
24.6041 34.4307 202 5 12 6
24.9322 34.4307 202 5 12 4
25.3853 34.6011 203 5 13 4
25.715 34.6011 203 5 12 4
26.0447 34.6011 203 5 12 4
26.3743 34.6011 203 5 13 5
26.704 34.6011 203 5 13 4
27.0337 34.6011 203 4 13 4
27.3634 34.6011 203 3 12 4
27.6931 34.6011 203 4 13 4
28.0227 34.6011 203 4 13 5
28.3524 34.6011 203 4 13 6
28.6821 34.6011 203 4 13 6
29.0118 34.6011 203 3 12 3
29.3415 34.6011 203 4 13 4
29.6711 34.6011 203 3 12 4
30.0008 34.6011 203 3 12 4
30.3305 34.6011 203 3 12 4
30.6602 34.6011 203 4 13 4
30.9898 34.6011 203 3 12 5
31.3195 34.6011 203 3 12 5
31.6492 34.6011 203 4 11 5
31.9789 34.6011 203 4 11 5
32.1494 34.4307 202 5 12 6
32.4775 34.4307 202 4 11 5
32.8055 34.4307 202 4 11 5
33.1336 34.4307 202 3 10 4
33.4616 34.4307 202 4 11 5
33.7897 34.4307 202 4 11 5
34.1177 34.4307 202 4 11 5
34.4458 34.4307 202 4 11 5
34.7739 34.4307 202 4 11 5
35.1019 34.4307 202 4 11 5
35.43 34.4307 202 3 10 4
35.758 34.4307 202 3 10 4
35.9074 34.2603 201 3 12 5
36.2339 34.2603 201 3 12 5
36.5603 34.2603 201 3 12 5
36.8867 34.2603 201 3 12 5
37.2132 34.2603 201 1 10 3
37.5396 34.2603 201 3 12 5
37.866 34.2603 201 2 11 4
38.1924 34.2603 201 3 12 5
38.5189 34.2603 201 1 10 3
38.8453 34.2603 201 1 10 3
39.1717 34.2603 201 3 11 4
39.4982 34.2603 201 1 10 3
39.8246 34.2603 201 2 9 3
40.151 34.2603 201 3 10 4
40.4775 34.2603 201 4 11 5
40.6009 34.0898 200 4 11 5
40.9257 34.0898 200 4 11 5
41.2505 34.0898 200 4 11 5
41.5753 34.0898 200 4 11 5
41.9001 34.0898 200 2 9 3
42.2249 34.0898 200 2 9 3
42.5497 34.0898 200 2 9 3
42.8745 34.0898 200 1 10 3
43.1994 34.0898 200 3 12 5
43.5242 34.0898 200 3 12 5
43.849 34.0898 200 3 12 5
44.1738 34.0898 200 2 11 4
44.2761 33.9194 199 3 12 5
44.5993 33.9194 199 3 12 5
44.9225 33.9194 199 3 12 5
